ply
format ascii 1.0
element vertex 1351
property float x
property float y
property float z
end_header
-412.144930 -1661.157200 2997.501000
57.767850 490.151920 921.214200
-1033.903800 -801.705100 1386.988500
1013.054400 135.730410 1403.491700
-381.846340 -277.671100 1830.696500
-467.935940 769.435360 1741.470200
970.080000 190.171460 2282.404500
344.599980 46.455240 3720.899400
2374.542700 -1182.051000 3568.436300
-450.054320 -210.563280 662.707760
-57.203693 805.712650 2555.352300
1194.601100 -1806.471900 3226.896000
1261.754400 -550.986200 2788.599900
-651.113500 -220.775360 3766.224900
-58.580074 -1194.022100 3465.921400
-272.345950 -2025.893300 3660.612500
694.455750 740.261050 1161.097800
1839.325300 -195.677800 2556.474000
1884.296400 -1804.094600 3366.106400
1734.452900 -677.850000 3861.068000
473.262500 -1628.505600 2937.031000
857.002440 -1411.440700 3799.759500
933.025270 385.069640 3568.391600
-311.158300 330.195700 2974.013700
-757.134400 -1494.496300 3552.140900
343.606870 176.404620 1478.743000
-173.296570 193.834140 2240.092300
-95.689170 -565.935850 3799.816000
1142.853800 -847.554800 3686.343800
-552.228200 -987.044250 1766.361700
-293.838700 -15.489708 1271.441200
-725.263240 -647.306500 2915.205800
-769.847600 245.485550 1852.482400
-798.543500 636.750850 3175.011500
-407.373350 -1346.808100 2427.123800
836.808500 -303.813400 3655.474900
236.376400 -1294.395600 3977.784000
2806.662000 -1506.392200 3816.753200
1831.075800 -1078.995800 3399.137200
-300.282070 322.584100 501.601200
1432.762100 -28.189188 3005.507600
403.609280 584.426100 3530.765100
15.113824 678.002200 1454.279800
2352.762200 -724.612600 3252.433800
-751.484600 -447.977170 1063.724200
467.744320 697.006160 2420.905500
1521.459600 -919.002440 2470.465600
-290.248900 -1401.840300 3916.673300
25.598919 -1703.611600 3350.146200
-176.383040 5.729421 3740.922900
-658.826970 -375.626100 2315.732700
-463.433300 -1157.455100 3137.539600
1812.863900 -546.003100 2936.812700
-896.262200 954.962100 1544.959800
1033.654700 624.488000 1513.115600
-73.907010 764.184450 2051.144500
-1018.112730 -835.435100 1883.934900
-91.453270 650.214360 3277.873300
1588.740100 -1452.243200 3192.147000
-512.161740 266.219640 939.143400
2630.411400 -687.750300 3644.657700
-298.438000 334.835970 1598.405500
935.791200 -7.292984 1851.992700
2312.690400 -1606.454000 3312.180000
2026.445400 -1481.738000 3679.541700
1393.360100 337.025240 3581.715800
1389.999900 -172.533970 2582.197500
-357.605260 577.376340 1225.842200
350.531980 -1501.592300 3594.226300
314.923250 -403.058260 3734.285400
1223.151100 -1542.231000 3585.058600
-450.184940 -721.754900 2109.660200
-86.728035 -1008.897000 3873.946300
157.760700 657.452000 2914.142000
839.596740 -1734.114100 3497.307900
27.754885 372.101170 3617.928500
-444.921540 -688.779050 2538.859900
-489.287350 -1163.535900 3576.094500
-247.293550 61.855186 2636.569300
450.672800 586.441400 1472.704300
-356.021240 -1541.068000 3419.553200
1409.934700 -541.022000 3650.165300
401.051500 349.246120 2041.730300
-524.199600 367.441070 2150.421900
1527.242400 -986.312200 3714.392000
-502.796360 -588.444950 3815.278000
-736.489260 395.075530 2863.443800
1452.357200 -531.893740 2429.643600
-418.771760 -1109.791000 2116.729200
719.488040 64.788240 3613.998500
1197.375500 -1213.689300 3795.495800
-222.521360 80.100620 1876.547200
556.941470 383.202670 2619.002400
-505.907380 -1184.638000 2760.368000
-456.634830 -358.332340 1291.653800
1712.395500 -316.904720 3700.337000
576.734440 -1161.693700 3861.006600
325.926850 666.916700 1120.125900
-621.276300 167.674970 1513.380500
1503.136000 -1735.442500 3421.650400
764.191300 409.120400 1377.929100
1573.242400 -810.010560 2847.613000
86.874466 -1967.840300 3611.942000
-276.096370 -268.498170 985.323240
1089.877700 54.162550 3573.555400
1793.272700 -567.713870 2556.598400
-244.592440 463.306030 1935.210900
112.671150 -1651.954200 2984.058300
2482.706500 -1523.312300 3624.963600
244.464460 470.727360 3212.189700
-479.261960 419.209500 3292.986300
835.681300 -660.125100 3698.647200
-134.866470 544.001340 2325.477000
2215.635300 -1950.799900 3337.184000
362.198640 -1742.949500 3246.610600
863.700870 -1751.044900 3146.584500
-153.303400 244.796890 806.144300
-704.275300 591.955440 3523.215600
2692.268300 -1204.929300 3690.588600
174.604780 -773.259100 3801.736600
-312.675500 -304.653050 3780.005400
-486.646640 315.274260 2647.008000
167.245420 795.603300 2286.594500
889.261700 -1059.177100 3760.085400
1696.080300 -878.240050 3154.104200
1121.950400 24.665499 2542.672400
2042.167800 -1071.268800 3658.792000
2152.260000 -1094.409500 3311.741200
1616.778700 -1315.710800 3491.085400
-751.417700 -1245.953100 3768.257600
18.524140 -261.676640 3754.942100
-410.349460 -75.137070 1573.758300
-742.737500 -944.312400 2029.890300
90.779610 721.786800 1768.169900
-711.892330 -843.674300 2658.942600
1153.387200 -349.787480 3621.998000
-169.073900 -1723.635300 3605.816700
424.779420 654.458300 2738.162800
636.202000 487.908330 3335.559300
-583.059940 338.887900 1240.678000
1562.646400 -22.062248 3317.197300
-343.388670 -1104.863200 4034.019000
497.491550 289.319550 3577.944800
541.379640 -195.525820 3676.389600
-187.087190 356.931270 3380.700200
-363.488130 181.245850 3566.827400
733.896850 649.393740 1586.630100
-458.123500 -1041.742400 2426.255600
799.734740 153.632680 1625.952000
1855.679400 -1500.803500 3411.732400
-278.386380 491.998350 940.196000
-588.441960 424.619930 1680.287000
-334.399440 1.304682 850.543640
310.819270 338.260620 1752.136200
1572.277200 86.327880 3704.760700
2298.742000 -1832.580600 3071.928500
-139.405780 644.477540 2963.816700
1797.621500 -1014.163000 2544.384300
-338.158100 -844.320700 3844.175800
655.631500 -1514.997700 3601.840000
-53.060352 538.694950 1196.327000
-292.935300 657.118840 1526.057600
-565.300000 -239.311130 2064.082300
-451.921660 -1471.947100 2695.130400
118.750420 -1342.172500 3693.232700
707.001830 586.151100 3605.464800
-768.867430 -728.991460 3848.448700
302.675320 -1034.014300 3851.019800
63.989418 389.952940 2994.183300
596.002900 -490.738530 3707.474000
-251.894670 706.837600 3516.596400
2420.755900 -888.615900 3610.945000
-484.712460 -1431.654500 3691.786400
-588.597170 -1351.037700 3364.727300
-486.781400 199.147540 1889.040600
-749.328060 -622.583860 2470.797900
958.499630 -144.974520 1433.255400
1714.259300 -852.244900 3527.911600
-139.711760 -1440.036300 3611.686500
-466.354900 -4.547546 3767.381300
229.329380 765.596400 2560.905500
-191.986390 736.982540 1793.514000
1658.658600 -1725.940400 3184.452000
-248.293180 260.205300 1308.865600
616.983000 168.089420 1411.768100
-547.097960 -314.730560 905.626200
1834.390400 -763.464700 2754.029300
-881.624400 234.560120 1595.852500
-1014.807430 -945.340600 1626.981800
-425.517000 -545.532530 1895.531000
-56.291490 -1437.754900 3332.146500
937.640700 638.179300 1246.205800
1612.979200 -360.126040 2590.955600
-445.239350 -1382.086400 2956.369900
-480.296000 199.017550 670.411440
398.581820 690.732200 2153.971700
78.756340 106.556465 3682.946300
-519.990540 89.845140 1149.250100
2781.451400 -813.508400 3849.401900
-931.319800 -558.946530 1319.810800
-181.464550 -170.730470 671.101260
1501.979700 -1537.177100 3607.078400
1038.629200 -14.015058 2102.919700
446.192000 -1400.798800 3826.983200
1261.013700 -10.888098 2772.531000
1854.076300 -1261.060300 3630.482200
-970.748600 -871.200100 2149.828100
-807.638600 302.609250 2111.082800
-792.073300 -661.348300 2194.944000
-445.482450 271.317300 2386.691000
-308.323760 10.178384 2382.254000
-738.586850 -471.124240 3796.531000
-105.065680 595.734500 2704.965300
-100.398210 -1237.298100 4001.849400
-195.180220 -1542.447400 3082.616000
1099.257600 -1740.417100 3460.579600
717.347530 -1956.983400 3545.778000
180.708510 718.915100 2018.013000
-812.404500 -982.325800 1784.068700
397.409450 649.762500 3107.336200
-205.584780 321.017730 3714.861000
104.690445 -1573.783100 3557.876000
1309.370100 -799.424400 2386.959500
2267.968000 -1396.771500 3703.307600
965.569200 -1528.069500 3582.296900
1086.500100 -593.270900 3663.267600
2102.176800 -1574.242600 3453.715300
1415.958700 -682.597200 2633.899700
-372.365700 -18.286352 521.641800
2132.940200 -1251.414200 3506.317600
2012.586500 -696.372700 2920.148200
-82.867410 800.363200 2300.127700
-241.918090 106.183110 1514.074700
248.833920 679.676760 1358.558000
2488.820000 -1065.592900 3773.441200
309.922180 695.864260 1648.364700
-568.294900 387.756530 3047.597200
-570.569400 -910.730400 2218.320300
-462.419530 -1506.754200 3186.204800
1163.537800 282.220830 3504.144300
321.941070 -1727.273600 3491.308300
1334.051900 101.431380 3527.435500
920.236600 183.942750 2008.460600
-166.105300 -1244.514300 3761.243200
-96.324020 512.620700 1743.330000
1382.083900 -786.310900 3681.838400
-742.651700 121.829550 1047.347400
1287.722500 -304.734950 2763.703400
255.125140 262.489100 3609.102500
-999.202300 -700.430050 1613.634400
-592.229250 55.512806 841.986100
-198.967060 248.976750 2485.291500
1667.589200 -449.448400 2348.896000
584.095800 -1732.534200 3519.192400
-711.130100 -1193.019800 4002.420700
-718.085600 458.158330 3319.293700
1669.705800 -102.014046 3586.994400
-264.183200 289.237400 2739.040800
2478.093500 -1781.585200 3287.581500
284.215360 415.189270 1510.151900
-40.303510 590.407040 3506.356400
1362.303100 -958.062300 2647.939200
1097.123400 -1431.662800 3768.791000
-293.625820 426.834470 2180.866000
1235.114400 -157.061000 2965.752000
-97.933810 195.980730 497.438870
-441.872470 -915.725400 1965.640400
242.348980 -177.501270 3715.728500
-372.687740 -1105.535300 3774.781700
1334.001800 -1422.042100 3765.692600
-510.573850 404.254670 1456.623700
733.019530 -882.016900 3742.943800
1480.576300 -293.846500 2401.398700
-241.252780 435.203120 703.753360
907.602400 -83.408936 3619.856700
1677.459200 -1113.525400 3589.857200
1638.795900 -537.664100 3693.810000
13.645471 784.637760 2775.593800
-405.013460 -91.430800 1061.876000
493.149260 363.672730 1422.412800
1299.173800 -1022.659100 3702.422400
-366.848270 208.791050 2085.966300
645.926700 656.068400 1370.206000
357.831730 -631.428040 3759.821800
132.307430 -541.765260 3775.954800
-447.464630 161.943270 1664.987300
1722.914800 -1292.315700 3287.891600
-697.166260 -1258.865400 3544.482700
102.093470 -1139.509200 3819.001700
726.699900 287.018160 3554.157000
985.080930 357.306340 1352.746200
2527.238500 -1597.765100 3414.368400
-54.365623 -788.305800 3824.220700
2601.431200 -1023.078500 3579.776400
1106.000000 3.535054 2318.084200
1476.335400 -323.870060 3666.946800
-375.275050 687.769040 1930.797700
-413.561370 -1156.260000 3357.051800
199.800110 466.195620 3508.186800
-432.269320 112.814230 1394.942300
1444.880600 -1182.149700 3790.419700
-282.098100 -239.723720 1208.000000
-919.111630 341.977720 1402.233900
1442.043300 -1805.536000 3218.320800
904.796600 -46.557636 1626.623400
1919.067700 -538.709050 2740.521200
1603.214600 -1523.931500 3402.129000
92.756040 -1356.923300 3473.910000
-505.289760 -449.139300 2097.218500
1363.899700 -446.107850 2612.469000
-364.940430 -997.230830 3501.723100
-782.444600 591.819460 2950.960700
1652.623000 -637.449650 2737.057000
1762.831700 -803.713750 2957.986600
-485.251040 -425.908800 1084.956500
-603.501400 -1074.316300 3739.206800
-115.788500 536.001200 2095.544400
2100.540500 -1763.208900 3345.979200
-600.949400 -799.787230 2416.056400
909.154240 170.098560 3549.317400
1191.065700 -141.140470 3586.798000
1371.959600 -1565.345200 3426.391800
-546.195300 399.687500 1937.759200
-638.383700 659.480600 3330.732400
1842.405000 -980.901000 3641.145000
-657.659360 148.300490 1302.674700
477.479950 628.695860 3309.194000
1657.437000 -1035.837500 2702.518600
-800.483340 494.970100 2687.267000
658.676000 -1356.906900 3850.538300
1596.454100 -777.862370 3735.519000
-378.847230 380.404050 1794.340200
-304.047760 -514.531800 3804.522000
2291.637200 -1539.304200 3538.078600
984.230350 -1239.389600 3811.728500
154.919420 -1700.072800 3184.942900
454.235870 687.590700 1284.579700
2476.000700 -742.409850 3471.645000
-509.031980 -376.822000 3781.016800
-290.937840 355.234800 3199.632300
126.403790 585.009950 1100.668300
820.317930 211.197500 1406.129300
939.371900 -864.414200 3713.763700
-670.784060 297.431370 2291.364000
1089.246000 -1044.638200 3709.446500
-469.520170 -1204.180400 2558.581300
-395.643800 -1357.527100 3524.908400
-567.820500 -779.453200 3836.233000
-199.831920 499.894320 3613.535200
-711.428340 -845.465600 2861.473100
247.564240 -1439.268100 3818.395800
-536.145500 482.070980 3488.779300
514.998800 387.423830 2421.577000
-324.522740 197.217130 915.602100
41.934883 432.735570 3189.407000
-21.937847 -1140.563800 3656.128700
-143.604690 584.475770 1374.558200
948.089000 -1747.642800 3328.710700
2683.476600 -1487.660500 3659.855500
514.342100 94.863914 3626.642600
2097.014200 -1293.973400 3704.918200
-284.480350 519.098270 1673.461800
111.053810 -1857.183200 3443.948700
-68.100784 714.489750 1639.859500
-101.248910 -1909.210800 3635.489700
845.524660 636.630900 1421.851200
-430.828220 -637.186200 2348.241200
1286.934600 -1740.262500 3389.577100
-326.235300 -1605.165900 3606.290800
371.164550 553.350770 1769.325800
-430.271880 262.438050 1120.449200
-276.371700 204.279680 658.229550
2035.515900 -1044.014900 3161.947300
919.342470 -484.857120 3669.545700
2238.238300 -1093.489600 3678.442600
1762.005900 -1540.843400 3244.198500
482.645420 -1004.361600 3780.107700
1740.844000 -459.622680 2755.073000
837.768700 171.426880 1816.701700
-384.056460 -145.805940 1385.563000
781.898860 -1206.077000 3836.988800
-452.292500 338.329960 2839.863500
8.198623 -65.973300 3737.984000
-636.916000 226.955610 1711.993700
560.091430 470.291230 3543.823000
-460.301000 8.917453 702.573240
-421.322200 -1212.159000 2288.702600
2016.777100 -1944.987800 3372.227800
-443.376600 -1183.635400 2946.900100
-621.812740 246.813170 2028.800700
726.507260 -144.036210 3649.601300
413.230800 586.495700 2918.687300
305.032000 -1643.974400 3030.204000
222.625150 676.169560 2733.683600
576.765900 650.019800 3472.753400
92.004160 -945.052600 3828.075700
-296.526580 -1445.712300 3727.938700
-90.768670 615.513370 2514.755000
-233.047260 35.072840 1690.810900
-795.249400 190.878940 1431.569300
-759.807250 298.154900 1167.937600
-114.244194 470.096100 841.576970
-136.906140 -377.750800 3786.111600
1720.736600 -1894.232800 3328.879600
403.187900 -1220.009800 3912.677200
558.013500 425.631500 2804.348400
805.316200 -1541.815100 3481.362500
-232.405410 72.567390 2106.859400
1803.042400 -378.312260 2591.878700
-156.924400 -190.281850 3766.776000
649.238800 -675.749800 3726.052700
-506.163800 -1547.940400 2879.267300
1000.902000 165.107000 2466.512500
-102.849490 166.879270 3678.366000
1508.911000 -842.716200 2669.601600
1755.941000 -857.130100 3812.464000
-188.766950 646.173400 1963.338000
-113.558020 -1594.919800 3414.830000
-218.249500 501.087770 1118.281700
248.382390 554.469060 3046.498800
-440.592000 -163.267900 894.117800
-465.358400 -189.757740 3759.962200
1642.987900 -1427.978000 3656.943800
-445.085500 -1306.544200 3253.860400
1967.640000 -1635.139300 3336.055700
339.521000 -863.253360 3789.694000
1562.063400 -496.781130 2205.327400
2567.355700 -902.380900 3743.956500
-708.400400 -1489.783600 3364.562000
1261.945400 -650.934500 3653.158400
-232.380050 -684.639340 3827.282500
1005.915300 -241.378430 3620.778800
-52.727577 565.743040 3107.444600
-920.400700 -948.740000 1988.216900
-727.208900 431.304750 3125.276000
-696.271360 -615.562130 2738.374500
1094.404700 -1553.264800 3456.572500
87.452800 608.170840 1288.129400
505.469020 -1563.822900 3512.404800
869.100650 51.025085 1477.906200
-385.783050 -1229.591100 3909.330300
-284.136570 145.221740 467.551030
-705.196300 348.525400 2629.810300
529.822800 665.497740 1614.989100
359.699830 405.997700 3570.454800
-309.324220 56.141468 1102.975200
2393.869100 -1929.711500 3355.987800
208.827620 -1688.404700 3356.473900
-437.584630 -722.472050 1926.520400
85.503960 824.929100 2447.588400
142.017990 694.816700 1584.347400
-468.851780 52.313557 975.329600
-327.149780 406.891000 3493.874500
2536.498500 -1252.759400 3598.236300
-523.513700 -1531.651100 3356.528300
-590.431950 -1171.273600 3428.553500
1600.215000 -1243.235100 3686.113800
16.541609 491.929700 3356.012200
2295.550800 -1783.795900 3321.389200
1429.803800 -703.295200 2809.844700
518.775800 698.162700 1119.437500
661.736630 -326.076480 3677.733400
560.647030 506.377320 3165.662400
1319.712600 -288.076600 3593.108600
1491.502100 24.803034 3559.838100
700.308400 -1057.546400 3789.109900
300.112730 750.264160 2400.677700
-429.989780 -988.240800 3919.149700
847.158100 -1878.419100 3397.527600
-203.926270 351.672030 2311.478800
-310.714600 -107.364970 3754.742700
-470.909760 726.495670 1572.575000
-799.949160 -836.700100 2179.216800
1193.954800 -420.617160 2639.299600
1681.376700 -894.905300 2594.392300
-604.437260 315.323330 2479.621300
511.472230 -1493.751100 3696.164300
-350.618680 90.341310 3854.644000
-37.022633 742.927060 1883.353800
-409.246280 -917.342470 2135.441200
-446.189880 -266.078060 1137.595500
-266.710900 -1260.588000 4042.346200
-258.581880 -1008.577760 3914.250700
-136.548900 -1410.669600 3796.988500
1574.669200 -575.976900 2596.073500
484.726100 -359.203370 3705.391600
610.734000 490.319030 1400.843900
866.076100 758.212950 1146.473100
-756.323400 -798.341200 2493.852000
-411.090120 425.734440 2305.601000
-605.206240 -961.034060 1929.306800
-997.663450 -646.730500 1450.848800
-238.058550 -1708.044700 3084.849900
74.768074 773.893800 2139.979500
-463.700200 -346.464170 1967.546000
1542.086400 -1099.654800 3487.222000
-324.016270 694.548400 1689.376800
-418.797420 -1083.581900 1948.524400
486.063260 717.115000 2588.919000
-86.574470 503.522800 1010.985100
-344.019700 -198.623810 1669.704100
-475.028470 -1401.640100 3858.030800
-348.138280 -1504.277000 3021.909400
-216.736570 -219.443650 828.835300
-40.242126 -1814.144800 3510.260700
152.150530 -364.152800 3752.675300
-822.412000 588.309450 3341.552000
77.505356 735.610050 2626.997300
-321.414460 -1565.750000 3255.200700
240.677830 727.477050 1844.125900
94.989624 -1205.534000 3555.517300
1955.033800 -1547.468400 3537.505900
-351.447100 155.693120 1801.204800
375.540950 263.617920 1617.845700
-464.581760 321.617460 1600.237400
-399.776900 646.350300 1398.736100
1002.224100 546.497500 1369.437500
401.677670 -105.317970 3684.300300
-827.436700 -510.265700 1199.546800
1564.310500 -1614.507000 3263.812700
-367.935820 408.616600 2032.043500
190.752170 -14.613013 3701.394500
1937.148000 -1050.816300 3524.330600
345.476800 537.036700 1604.538600
808.450600 -1504.438200 3671.588600
-855.254640 -701.170300 2370.877200
-616.177500 284.843900 1396.716800
-481.903080 -782.614600 2288.269000
1243.923200 -488.614230 3628.832500
-978.613700 -964.191000 1788.662100
-600.167500 304.250400 1073.130700
-377.368530 -1302.244400 3722.896500
-416.457000 -1322.903800 2763.775100
-333.512600 230.989940 2245.862800
-191.905200 71.816910 2480.403600
53.570740 -1545.707300 3389.128000
-255.465160 586.251200 1826.335300
1925.521500 -1057.336700 2663.877700
-248.101320 -74.309340 1552.740100
1676.999800 -893.103330 2426.885000
1676.930400 -918.810550 3683.284700
-543.985900 -334.178220 2206.664000
213.046810 -1133.927500 3944.130600
1268.779400 -17.312168 2600.097200
597.695250 -44.363403 3652.086400
-258.708370 169.906620 3746.339000
1770.236900 -1270.694100 3461.648000
1970.979600 -534.654100 2894.482700
1500.979600 -29.701270 3167.382000
-318.368680 -1783.100200 3624.888700
779.551900 665.813230 1276.838900
1584.190900 -1369.303000 3330.895300
754.363460 -518.506800 3692.302200
197.426530 -1479.313100 3660.407500
-437.118130 474.453830 1646.013200
-96.042435 239.181090 655.570900
-376.323940 281.459530 2535.537400
1322.258000 -151.933150 2725.315200
-109.551820 -1284.986300 3589.168700
1516.394400 -641.854100 3715.808800
-498.233920 -201.074520 1913.392700
-660.058700 -610.027200 3822.818000
1461.063500 180.916430 3580.354500
767.619200 439.407800 3611.849900
89.808940 578.116100 3038.925300
-1.579932 667.638000 2889.158200
-572.180100 206.793150 799.081700
-636.764830 -1107.305700 3583.476300
-662.280400 189.686130 929.566500
7.318995 -1293.305800 3357.410600
8.273917 -438.703550 3775.973000
-692.048800 -333.060420 965.160900
-991.868840 -813.749500 1723.117700
1393.635300 -846.613040 2527.612000
1777.018400 -1717.482900 3288.127400
993.175230 -717.765260 3687.227500
2252.077400 -1130.685500 3484.165800
-180.688660 -886.588130 3845.284400
1544.616800 -178.687100 2556.617000
-532.513200 -1189.257300 2396.822300
-622.085000 -456.579350 2444.575200
2448.538300 -1042.598300 3607.640100
-389.443760 -695.190730 3829.479700
966.983460 -1646.603800 3474.199200
-54.657250 -1160.221800 3853.445600
1616.611700 -828.838750 3006.285000
-439.232880 382.055480 3134.875000
-96.516010 511.784200 1938.373000
-390.619400 -124.720985 1216.791400
1579.224600 -194.456040 3673.764200
1041.638100 -13.895812 1445.121700
2413.260700 -1379.593400 3755.400100
29.122557 -659.488160 3801.562000
-188.274320 -1109.793700 4011.453900
1916.821200 -1334.669400 3751.718500
-559.980830 -1291.391200 3151.251000
382.988160 173.228560 3603.448200
532.834050 -1309.349200 3926.895300
-496.380700 -592.004500 2038.657100
2365.952100 -1901.143000 3193.114300
-309.137820 609.614440 3622.298800
2608.297900 -853.873700 3603.143800
350.485840 551.940370 3389.496800
248.814640 717.241330 2180.420400
1364.407300 -81.922310 2878.348600
-666.347600 -1132.191500 3868.289300
2153.350600 -1622.053800 3314.897700
322.756530 673.653440 1496.680700
-616.591700 307.953400 1575.653000
975.076900 120.118800 2141.782700
-156.663640 372.687770 3530.055200
-114.656730 -1347.346000 3449.340300
508.273650 -616.546600 3733.721700
1459.217300 -674.668460 2484.142300
1407.379300 -322.114870 2532.581500
-436.224120 -1027.499800 2275.674300
642.160300 321.519040 1405.694500
-384.150800 -111.999690 761.306900
135.445590 -1358.390000 3883.092800
-384.714140 240.713880 781.531400
693.338400 -1404.472800 3699.609900
2174.486800 -1501.904700 3627.380900
-550.306600 -936.154660 2070.019000
-651.090940 182.533950 1151.962500
-539.557400 -465.702580 2291.686000
-628.444950 359.039980 2764.168700
1913.448500 -1412.898000 3592.153000
-578.640200 328.438320 1807.535800
1231.601900 5.469807 3591.483200
201.706090 665.003050 1205.813700
-448.156920 -1349.707200 2591.566000
-114.574960 699.835800 3434.299600
962.775800 -1420.695400 3687.860800
1202.815900 -1355.486300 3844.709500
1858.722300 -688.620850 2947.840600
339.590270 700.557740 2013.109900
107.312660 243.895550 3625.317900
373.965600 -258.394930 3710.398400
1309.319500 252.216930 3487.162800
1374.799800 -1459.601400 3622.207800
1640.243800 -1538.155800 3550.210000
249.582400 -1609.239000 3549.910200
-252.803450 178.064850 1995.104900
2457.213000 -1633.204700 3287.764600
-697.274050 -867.870240 3860.339800
1575.390300 -1003.453860 2579.776900
-121.446440 642.484100 1521.746100
-301.912750 -21.267110 1425.229700
624.888400 181.678090 3580.047400
871.842650 59.218510 1724.769700
-203.384120 233.303740 380.504460
674.856600 -1614.220100 3494.180000
2045.168500 -1167.886800 3381.865500
-737.483200 204.030880 1603.720000
-270.929470 296.031650 1450.135400
1330.401000 -1274.786100 3759.172600
-137.874800 -1586.074700 3563.617000
-1017.281860 -827.878540 1538.434800
-400.450960 79.772820 1236.852000
-373.393370 -1203.745100 3495.039800
228.470290 125.781320 3656.055000
1016.376000 274.206570 3520.929700
1488.903600 -1464.024500 3733.403600
-871.036700 255.909650 1746.988000
481.272250 219.413850 1444.826300
-499.996980 261.920140 2251.148000
-435.885960 -1280.589200 3063.707500
-603.393700 86.037260 1020.947800
-460.621100 -275.164640 793.106000
1770.044300 -1014.878600 3514.973900
708.447200 -1807.975500 3510.371300
-34.089250 539.934900 2965.264600
-364.368770 -206.479970 1525.693600
-819.936770 319.426420 1298.480300
51.422390 -1054.029500 3924.723100
1233.479200 -1606.438700 3439.494600
1050.581000 -102.651720 3605.058800
443.344180 -1784.428000 3546.217000
168.101350 420.527680 3099.755900
-711.123100 -1384.062300 3470.447000
-1051.136600 -905.234100 2034.383400
364.500240 -1480.020300 3737.879400
388.058960 -1813.439700 3396.022700
1091.676900 -1743.565200 3313.488300
-396.191960 174.279460 553.190100
426.441280 -493.926150 3728.785400
383.620730 315.542700 1874.154200
-384.957980 124.702270 1540.858600
1578.898300 -1122.907300 3761.920200
1712.660300 -825.176940 2799.304400
294.585170 635.268100 2851.089600
-350.239070 389.994750 3348.902800
588.653750 -1881.526200 3539.683000
1530.689000 -428.753420 2491.533400
1654.228300 -1579.747100 3157.514000
-840.707150 282.733280 1971.497600
55.415714 454.154360 3488.522700
1095.593100 -1520.249000 3656.578100
1240.391000 -605.642400 2658.276100
865.329700 507.069060 1353.402100
1196.687400 139.528800 3517.427200
-285.382900 -1469.526600 3587.706300
-823.588500 549.472350 2816.888700
365.991940 547.458400 3201.218800
329.355380 760.922700 2692.952400
-606.020260 -438.761500 1011.039300
-451.939480 -1487.544600 3514.282000
1815.296900 -1160.086200 3538.349900
2284.614000 -1283.054100 3611.273700
1517.219600 -456.941900 3693.482200
-483.414670 285.617130 1347.158900
-446.418180 -263.663150 995.924400
590.252000 697.432860 1247.109700
159.297070 579.228200 962.551150
706.022100 147.773380 1520.484000
1011.298700 -381.673800 3641.123800
593.476800 -917.864500 3763.145000
-156.946520 659.846100 3153.399700
834.612850 -1810.719000 3274.017000
-475.306950 397.381560 2441.458700
1568.310000 -54.391390 3671.737500
1216.812400 -1444.095700 3691.560000
-192.448100 539.245670 1251.062400
2515.761200 -1484.969400 3755.767000
366.684140 313.625580 1459.834600
432.565120 -1085.503400 3886.841000
-369.465670 -1016.883100 3640.306600
2146.821800 -1362.927000 3593.722200
1383.543800 -569.345300 2549.445000
-61.122234 478.457700 3599.980000
1726.272600 -1410.552400 3208.421600
1714.699000 -266.467830 2570.689700
2421.466300 -1579.295300 3503.549300
447.537840 676.296600 2283.863800
-205.253190 86.382940 2323.214600
510.574830 599.139950 3024.078000
395.182000 464.555080 1433.945800
-453.720670 -1414.265400 3384.494100
1712.739100 -695.109200 2849.445300
2569.402800 -1252.968600 3735.572800
338.341300 -1355.199000 3904.770000
-209.506710 775.957950 2009.408300
617.179440 653.157350 1507.239100
-595.299740 -483.066860 3806.305700
-295.446000 251.901960 2385.294000
-43.231533 67.476990 3754.470200
-504.473360 -1071.596000 3837.593000
857.379150 45.007965 3615.259800
1282.437700 -887.003000 3683.836000
-60.968018 270.857060 3587.873300
735.108900 548.951500 1390.023000
-709.016300 -667.905600 2594.555700
-602.404050 419.857900 3231.155800
-101.458310 737.571900 2444.065700
-636.989870 230.262570 1893.053000
-649.891050 -898.940730 2329.824000
2138.386000 -1148.624000 3597.180400
-319.778750 -14.712159 985.822270
-637.746200 -853.379900 2536.609900
-676.352970 279.074280 2150.208500
-525.060400 107.484470 1286.298800
976.331360 24.742510 1987.460100
47.809593 752.372700 1990.126600
885.806900 -1304.128800 3880.976800
-107.986595 -1306.156600 3884.118200
-680.217200 -353.697000 3758.091000
-691.480830 -922.506040 2156.513000
1378.236000 -408.331270 3618.903000
-198.440230 431.369480 2059.260700
-473.349120 -420.929780 949.647700
165.561310 369.938600 3597.369000
-443.327270 356.097720 2988.865200
1485.481000 -859.862400 3739.246600
1765.459800 -472.106140 2464.978000
-678.614500 -980.456100 1813.924100
-189.871750 273.316620 564.459050
225.547200 -645.679100 3782.119000
1917.104200 -679.356600 2819.389600
-565.665650 369.700100 2905.755400
-319.699130 26.207415 3739.372300
1304.332300 -435.843350 2733.277800
110.562130 -157.987900 3734.609900
1725.502200 -552.535340 3795.390600
1497.928700 -1570.077900 3472.633800
-366.259950 -100.033330 627.954160
1439.486200 -1320.116500 3828.876000
1197.480800 -16.248440 2439.614000
-516.081850 -906.231900 3842.881300
-266.793950 455.366880 1799.631100
-746.461060 -762.913000 2759.957300
-175.331050 592.713900 3520.606200
-263.941650 297.726350 753.185700
-487.665600 218.607450 2021.149700
1039.259000 -1350.319500 3861.582300
1047.365500 43.510624 2433.610800
-52.174458 713.818900 2651.989300
2611.083500 -1545.004300 3563.554000
-229.364530 146.832340 1387.765400
149.696730 679.047360 1447.577300
1669.576900 -666.666200 3739.208300
226.950990 -930.632450 3812.074700
2358.055200 -1481.359400 3654.198200
-244.502430 268.372040 2608.513000
1450.681900 -178.476780 2459.803700
355.747800 724.823670 2565.149400
-502.157700 -800.383670 2016.498000
97.893310 676.926900 2797.676500
1140.333300 -715.489200 3677.439700
-230.502380 -1881.167700 3639.672900
-372.947420 -251.983080 1307.490600
1838.669300 -1929.572500 3376.788300
-694.581400 273.032620 1280.073100
1352.942500 -285.506740 2650.841800
323.465420 687.800300 1250.452900
1798.386600 -1415.798800 3329.220200
1082.407000 -1150.377300 3791.905800
-126.024650 607.586600 1830.200100
1407.802200 -1744.449300 3329.200200
2693.228800 -766.822700 3728.309800
-472.629970 -1547.946300 3023.394300
1822.016500 -994.713600 2713.667000
-857.379900 -927.697630 2104.839800
-457.875550 -186.748540 1776.346100
-106.713930 -1699.275800 3494.201000
2402.233400 -767.405500 3364.942900
-463.229460 28.756517 831.104300
-475.466200 -1111.921400 3694.623500
-131.802630 430.184360 1837.283800
383.703370 -1613.393800 3537.172000
-807.739500 -962.405600 1918.999300
1880.840800 -484.474980 2603.985600
109.201300 -1207.044800 3708.481200
-239.836900 201.069440 2122.718000
1627.413600 -51.513268 3475.382300
-780.578700 -762.966200 2284.001200
2494.237300 -1938.239700 3274.484000
1546.382600 -1137.881500 3610.906700
283.679780 -1680.770500 3164.483000
135.814680 500.652500 818.640700
-794.611630 150.801000 1162.126800
1420.208300 -1060.429700 3727.193400
830.410770 -795.882300 3722.034700
8.437060 489.438400 801.994800
-328.631600 -1704.132100 3523.475300
-303.339420 133.356890 1645.970700
275.836430 -529.166400 3760.628700
1321.817600 -1144.425500 3736.842300
-291.478700 254.996380 3643.598100
-766.081850 558.795900 3078.218800
-428.242860 -482.459080 3798.810300
610.361760 345.416660 3553.695300
-372.523250 428.715600 1545.020000
517.717200 662.378660 1394.207800
-491.841950 -1004.020450 1879.673300
561.997300 -1398.506700 3764.965000
-739.282960 -1308.891500 3657.611800
1821.008500 -952.223940 3386.640100
-415.547730 -416.556580 1872.189500
387.614870 683.517760 1756.311400
778.199650 171.140990 3567.892000
1641.544700 -1256.859300 3379.331000
-305.437070 -177.072720 1068.964400
942.251000 240.663970 1379.889900
1677.472500 -1104.193200 3463.060800
-125.545400 -1477.605800 3491.112000
158.951390 -1649.565600 3470.555400
-31.874004 -2015.355100 3642.690700
25.798828 514.406400 1069.353400
-562.021900 136.622270 1405.895500
858.316400 285.555330 3539.069300
1110.224000 -470.856500 3642.313000
-373.676150 183.859280 1943.138200
-458.048520 -1441.774000 2830.720700
-150.212110 223.637310 2360.556000
374.957670 677.287540 1382.135000
1321.277500 -1785.111600 3247.249500
-761.598700 -622.239700 2342.416500
1832.255000 -1613.907500 3333.089000
-784.761300 328.244500 2334.442600
-711.181000 403.972930 2986.143600
-266.940500 602.607300 1389.795300
1713.913600 -193.843060 3660.365200
-521.219400 -1233.504600 3344.308000
908.677300 102.205130 1913.952100
-365.295650 730.980350 1802.509900
1359.516100 -14.005721 3569.210700
199.685560 706.725460 1708.090100
2228.249500 -1586.734000 3408.879200
42.312756 799.522640 2279.810500
953.378050 -1771.883700 3451.309600
843.481900 -941.187260 3737.106400
-521.530760 185.756730 1762.830300
-238.059340 473.941860 822.529240
1555.222300 -1239.367400 3803.272000
131.167790 -1448.633300 3761.729000
-478.472500 372.272950 1713.219800
827.590640 -1903.406900 3517.880000
-68.380870 729.447750 1763.338400
1613.050200 -1014.456360 3628.945000
1600.386800 -364.757630 3676.001500
681.603700 447.990050 3522.856000
-146.203870 492.471950 2207.563700
-673.429600 -1271.938100 3423.536900
-707.402300 580.453400 3399.880900
-67.003970 -1095.692100 3960.055700
-374.219330 270.652200 1002.057800
1562.564300 -1808.676600 3190.249000
124.898346 -1767.906100 3312.523400
2072.572800 -1495.249800 3544.128400
122.614640 734.050600 1886.968100
2602.351800 -1148.965700 3585.541700
-366.650480 -1225.854100 3616.390000
297.504270 -747.913000 3778.992400
1036.687600 51.921764 2223.817100
-78.487970 781.836400 2178.455600
863.872000 337.136020 1371.168000
1049.321900 -923.885900 3710.473000
1244.259500 -58.640945 2892.734400
-749.623800 378.042100 2740.486600
-713.368500 241.045380 1042.442700
177.372650 -1028.217800 3867.857700
-505.908500 150.838210 1551.952000
1393.978900 -662.142100 3660.488500
641.363800 -800.670600 3741.539800
1608.873900 -900.123840 2772.846700
-563.483600 294.242280 2363.890100
1581.961300 -1643.313800 3386.476300
-629.036130 439.200600 1796.837200
-266.769600 350.788880 619.379000
1188.067700 -962.048400 3702.542500
-23.068851 -905.919700 3838.277800
-399.010200 395.440640 1914.974900
2100.805200 -1122.534800 3480.297000
1338.215500 -1547.543500 3545.544700
334.961430 628.198600 3003.331500
2035.587900 -1198.233200 3639.084500
1392.089700 -933.358950 3707.888400
-471.397950 -467.043200 1978.979200
-625.925960 470.671940 3407.968300
901.180900 -63.855076 1502.917700
977.716400 15.419479 3624.795700
1653.632600 -1237.999800 3576.547600
205.948720 812.384300 2450.169000
299.987270 511.640900 3558.858200
1706.740100 -385.914400 2664.847400
222.752930 647.806150 1060.135300
-318.772460 351.948100 2273.955600
1074.756500 168.707410 3524.105500
-207.003850 -1319.380700 3955.660000
760.787900 -395.647370 3673.285400
-287.064480 368.290130 1713.646600
-316.981200 -1652.982000 3397.974900
962.152300 -596.664800 3682.084000
-301.775120 -1611.719400 3050.026100
842.876040 -183.196950 3637.949500
-151.680240 -2019.063600 3649.061300
1412.719200 -90.640690 2666.905300
1411.726200 -441.807800 2499.045200
-86.451090 613.773250 2822.005900
848.121340 640.929600 1541.601000
1450.559000 -970.604000 2567.823200
1247.175900 -773.481700 3668.542200
-454.914900 -1004.759000 2046.861000
2118.045700 -1883.364900 3353.588100
479.179960 -14.437733 3660.639400
73.196370 -1242.176400 3443.139600
2868.007800 -783.229400 3972.786000
-755.498840 224.166200 1726.230200
-449.404970 433.870970 3407.684300
-429.495180 -1096.341800 3485.252200
731.465640 644.705260 1467.356900
-537.472800 -785.989900 2159.722000
1621.502400 -468.738560 2639.376200
253.700160 -301.014620 3734.177700
1386.940800 -1684.971400 3430.009000
60.507030 -817.874600 3816.649400
394.076300 592.637200 1879.124100
-272.044770 697.935360 1872.949500
331.245940 -1122.630500 3942.604200
456.987820 622.956500 3426.001000
-189.515470 -483.326780 3803.132800
-525.328060 247.731700 2129.854500
1011.010440 -1813.472800 3252.774400
890.679570 -1166.607900 3810.765100
-431.670380 -1212.989100 2672.457800
-267.581100 309.343320 2855.769300
326.787050 696.269200 2267.114500
-369.112820 298.063500 2685.113800
-316.225830 89.013870 1322.125200
-179.704710 708.163940 1678.146900
371.972660 290.720100 3593.265900
53.130720 -1404.833500 3362.161400
1519.646500 -1717.072600 3301.771200
283.230800 334.447360 1596.312500
200.671070 -1655.411300 3084.467800
-228.362230 128.428130 1762.804000
2327.308800 -1058.074200 3609.809600
1557.334500 -291.266420 2490.730200
-147.009720 779.247860 1909.629900
-106.512300 -682.992070 3817.381600
-491.971600 300.818180 2525.800300
1206.314100 -1090.385400 3727.558600
770.500730 -1326.927400 3885.690700
-394.465850 -1566.123700 2930.876200
504.513520 613.657170 3140.414000
928.949500 -49.763515 1741.437900
-890.237850 206.396000 1363.640500
-541.791400 331.802250 2039.816300
-454.982540 -804.643300 3855.551000
-330.310600 534.491700 1120.537400
671.204960 -1234.867200 3861.250700
-408.249700 -1178.526100 3242.550000
-419.440830 -705.401800 2221.088900
-256.802280 -161.555980 942.876900
-349.135680 -1316.042000 3978.504600
2004.595600 -1829.025600 3352.350300
781.302400 -44.008766 3627.061800
1627.335000 -1347.442500 3224.158700
105.667920 -1461.352700 3591.608400
856.889400 54.933006 1597.176800
-121.680786 354.468720 3640.378700
340.068660 553.871400 1484.505400
24.930350 698.356500 1572.815800
-336.557800 -48.451378 1144.747900
1041.665000 98.892210 2331.008000
1331.690200 -537.667600 2679.217000
147.903470 -1236.588700 3930.646500
-349.789120 -4.927098 734.064640
419.151700 -733.541260 3759.268600
2406.918000 -1596.379400 3390.168700
-104.855600 -86.726390 3749.860800
1120.342400 -230.648480 3609.839600
-424.017150 -1530.317600 3294.437700
210.580050 -1500.694600 3545.766800
-698.154240 -878.464360 2432.533700
-366.644230 -1420.408100 3823.650000
926.867500 -1538.652500 3471.897700
1190.333600 4.085043 2681.487300
1829.956200 -775.529700 2868.314200
-768.510700 163.894680 1276.360100
-299.316350 431.486850 3620.021700
-27.643040 819.366100 2411.484100
15.144832 458.800260 3072.060500
479.042500 -1677.101300 3527.021000
291.792720 -75.349240 3697.089800
1709.326300 -1805.724600 3256.975800
-765.762500 306.619200 2223.542700
1613.857500 -1437.556900 3476.592000
-527.128400 -1226.357700 3012.307000
485.965670 638.522800 2833.472400
-211.315840 35.456104 3636.281000
2515.376500 -846.337700 3537.114300
-404.675500 -182.806170 559.355830
2098.707500 -1439.002400 3756.884800
1694.026200 -438.322700 3704.148400
-323.270570 351.507050 3090.242400
-274.128200 188.596420 784.346300
313.597320 -1378.280900 3737.256600
-314.487000 251.452840 413.974100
619.490200 513.382400 3445.098100
-426.580350 -294.316400 3781.555400
-539.985700 411.922580 1578.356700
-369.211800 -1541.321200 3131.517300
327.062800 -1702.376500 3346.453400
-483.208300 -363.962200 1181.113000
2486.022000 -1152.146000 3585.504400
445.174700 481.452700 3552.964600
-508.292900 374.271730 2262.228000
-422.351140 61.900450 1099.717900
-388.142850 -1097.799200 3930.586400
8.001498 195.520580 3648.592000
-892.101260 218.855760 1482.341400
1726.746100 -1007.298600 3634.097400
-365.884340 261.929200 617.392760
-736.490540 631.849800 3283.018800
-113.057220 621.210700 2404.329300
-464.140960 -1416.920500 3262.277000
743.609100 -1412.313600 3802.330800
589.343400 -1051.960900 3804.990200
-548.865600 -272.645480 3769.946800
-905.162000 -809.119750 2216.115000
418.899080 693.068360 1176.886000
709.496770 231.040280 1416.282200
574.700260 590.479200 3349.461200
204.494310 655.669400 3015.820600
2527.271200 -941.082600 3596.843300
519.516970 574.818660 3532.553200
54.623760 567.257800 1186.955200
-686.855300 168.750670 1415.909000
-271.766630 -408.892150 3787.960000
499.948270 502.623630 1417.882300
435.638280 667.332400 1547.926600
2202.208700 -1722.846300 3324.655500
-463.963500 -1122.412200 2224.413800
1085.365000 361.199250 3528.458300
900.460800 134.177190 1403.558300
1503.687100 -476.331500 2112.985000
1419.367300 -239.447940 3598.210700
-168.742300 474.808040 941.189900
-528.020500 306.922600 1506.892300
-45.806100 568.385700 3218.583500
1296.878500 -179.991330 3583.657200
1259.695800 349.229250 3507.441000
625.157530 -1490.683000 3713.474400
359.111420 541.387630 3067.725000
-461.949250 273.084660 1239.342000
1202.931400 -1737.208100 3312.633300
608.941400 -1520.970600 3501.838400
-575.475160 314.958130 1682.543800
-487.814820 -1265.751600 2468.763700
1870.317600 -508.700260 2850.213400
940.644900 583.225340 1453.402300
-374.772300 -1209.589000 4018.943400
979.362700 -1015.652600 3713.643800
826.560550 390.517700 3527.571500
-474.322400 -1360.718100 3152.358200
-23.186007 622.541930 1367.099400
-312.367770 -119.060430 1475.389900
-385.282800 377.658570 1653.719800
1480.240700 -745.211240 3726.699000
1948.229700 -1571.130000 3423.426300
105.407845 -1340.699200 3581.990200
2185.987800 -1567.769700 3524.567600
-395.711460 -257.116500 1414.894300
2575.364300 -1469.192600 3664.803000
83.560120 -1494.170400 3485.328900
-292.631470 221.128300 546.624630
1104.473400 -1267.071000 3832.393800
1396.558000 185.971200 3491.943800
-918.012600 -965.913200 1880.052500
441.425660 -901.353100 3777.819800
123.714830 795.787200 2545.884000
595.447100 354.681950 2729.985000
-557.628540 289.042540 1939.845500
436.577500 628.383300 2629.087200
-520.254900 -97.790405 3785.321300
-29.203550 -1609.354200 3346.998000
1572.821900 -1477.738200 3296.962600
272.119630 497.938900 3336.284000
-57.689890 609.686650 3400.505000
-403.378540 -357.188700 1063.844800
2377.851000 -1714.044200 3306.214600
187.467900 752.074770 2660.566700
815.108000 142.336460 1502.352000
-591.463260 180.001820 1625.002300
7.794213 -1893.366100 3567.249300
-726.358950 272.150100 2012.868800
-199.437130 660.472960 3285.091600
2533.248300 -1870.343500 3349.742700
973.603940 230.986250 2382.933000
-269.215970 -209.926700 3750.102000
-745.244100 -906.108460 2249.211700
1509.339500 -728.908500 2662.788300
1257.080800 -377.914060 3609.572800
739.327300 -735.285160 3721.061300
-759.116100 -720.778500 2416.009300
-233.343840 -792.532100 3845.520800
1202.470300 -1710.237200 3453.859900
-660.920170 -725.795040 3829.793500
-214.087600 76.343180 2216.495000
1807.078500 -291.459470 2520.126000
797.991330 -1094.995800 3812.997300
-473.468080 257.470340 839.297360
-438.282070 451.216520 3543.811500
-349.142180 -950.595300 3851.964000
217.418840 -1641.447000 2964.333500
-659.519500 82.158650 929.824400
733.567300 -1703.489400 3497.196000
-746.667100 -780.223270 2938.439200
18.668354 -553.953500 3788.584700
1461.205700 -401.588530 2413.317100
-384.920800 -69.768776 1310.544800
-315.388820 294.043500 2124.427200
-523.131840 324.594330 1153.586200
984.881530 -1103.963000 3774.058800
1587.470800 -890.470300 3737.273400
2393.450200 -1062.919000 3696.487000
-294.646580 44.711754 2487.345000
-183.915400 -1448.725600 3709.575400
468.703220 -1503.756100 3599.236300
-371.897060 -83.310390 908.546200
-388.617070 -589.304400 3819.280500
-396.348970 669.390800 1504.573600
738.863650 -254.570470 3662.312700
-32.887600 -168.879430 3749.136700
-797.822270 946.664400 1583.995500
954.426150 41.484196 1415.604000
18.431221 -1130.257100 3753.675300
131.041090 394.318600 3232.043000
-84.633970 -283.072000 3766.278800
31.223337 713.890200 1680.931900
259.749020 737.114300 1949.899400
-566.228800 -672.854200 3823.465000
1777.778100 -923.018200 3574.418200
-378.829250 -299.853270 1211.933700
238.328370 -1710.426900 3255.376700
969.235170 -1409.085100 3792.830300
1492.945300 -123.101585 3634.355500
-444.281430 -169.301240 1653.149000
-399.986360 376.412700 3232.870000
-179.174320 521.762630 1861.399900
1327.668600 -32.593990 2690.546000
-566.446600 -270.057770 811.869700
-475.796970 -867.267460 2201.556000
1600.110200 -1525.601000 3647.046100
-299.504580 388.626860 1880.396000
122.245964 -1257.429900 3800.273000
-258.192500 258.901800 861.364140
1673.165400 -1212.258400 3469.400400
1044.982800 -809.385130 3694.236600
1619.113500 -1338.072400 3607.558600
-423.800080 -269.199340 893.246600
-223.755480 442.074550 2258.053200
924.097100 622.251040 1349.315000
1667.880500 -805.742740 2912.858000
-603.002500 337.260560 2651.825200
141.387900 -260.515230 3738.618700
2232.370800 -1209.860500 3550.416000
863.417660 -1629.355300 3481.662600
7.711497 -1150.711700 3534.911600
-394.381600 -49.937443 1465.929300
-216.526030 686.157900 3413.247300
360.119750 -966.431760 3791.094500
6.540698 633.768700 2989.054400
-1.444896 805.534000 2646.050500
1820.336400 -458.503020 2686.521500
-451.542700 -1213.088500 2845.527600
736.613900 -621.345000 3705.595500
1623.150400 -1332.565000 3736.159000
-194.511720 267.839450 677.669800
-750.819100 -1365.142500 3569.879600
-253.034870 28.501090 1583.591700
-412.458340 235.659740 2177.048300
2305.502400 -1937.195900 3285.302700
1288.830100 -1514.569700 3661.670400
2390.505000 -1824.256500 3338.087000
-153.281720 -1029.681900 3954.115200
-295.200800 68.001870 1205.864900
614.351700 65.167730 3632.788300
-375.323900 -387.981600 3787.131600
-144.963850 455.211730 742.827450
202.318660 -1372.993500 3750.313000
-202.807510 136.058790 3662.960400
79.369830 5.685164 3711.472400
-82.915940 -1207.101400 3708.616500
-818.586000 -743.689300 2135.666300
1562.635700 -788.759030 2740.935800
-94.314180 671.676100 2007.545000
857.767600 -1527.536900 3582.824700
-577.023600 -336.364000 2107.944300
-209.100190 -294.248300 3778.157500
-407.497560 -197.322130 1068.543200
-444.447630 -1299.508000 2340.277800
1601.483500 -1442.829300 3754.131800
-370.407500 -1437.452100 3655.298800
-241.873440 -1421.710400 3826.919000
556.296450 583.071600 1460.860100
992.243300 102.863070 3570.922400
1950.907500 -1053.160400 2921.955300
-500.884280 290.193570 1039.326700
1874.527800 -1415.685800 3496.184600
2215.736800 -1846.485700 3341.222400
943.133600 -1742.630600 3212.112000
-1013.453200 -747.150500 1474.117000
-208.030910 -97.176310 3757.330300
640.153750 -225.046220 3667.980700
1880.925900 -992.618700 3460.269500
2515.733000 -1538.312000 3511.755600
-273.234400 557.398300 3540.952100
1560.721300 -1699.457900 3202.874500
-718.069200 223.493410 1497.510900
-100.238780 -1811.587200 3602.390900
-705.304570 -1212.242800 3636.044200
-422.768600 -634.573200 1980.431200
786.143800 693.383000 1164.822600
-413.144600 -96.975000 3751.955000
243.527560 688.019040 1568.377400
-116.672620 517.597960 1114.562300
-573.574340 -826.212500 2305.449000
-446.556370 -1337.707000 2861.015600
213.853120 -446.393620 3754.662000
1131.829100 -43.382900 3583.744100
408.656040 -1865.073000 3492.843300
956.532650 455.743600 1346.854400
-228.014660 -1634.937500 3606.795200
906.875060 -383.726930 3658.412000
2205.425500 -1130.912100 3392.898700
1125.094100 -1548.268600 3556.031700
333.800230 -1261.269300 3975.646700
-274.896500 611.617550 1729.194000
-496.538120 389.087160 1813.732300
-50.572140 365.080260 3549.536400
2132.897500 -1256.619600 3616.755100
-406.218600 0.960865 616.130000
-414.502230 -1017.645140 2160.653800
-1.867416 -1786.564200 3419.755000
1519.659500 -542.035500 2505.680200
-527.368160 -1033.181400 3929.279300
549.883670 -709.366200 3741.412000
1905.691300 -598.291260 2942.109600
1682.649000 -789.644300 3790.789300
1222.704800 -249.119170 3594.364300
-503.868560 -1196.904900 3475.685300
417.506680 638.740100 1991.451000
-596.430050 118.287050 1214.530600
-200.423130 -588.853600 3814.553200
569.618650 522.544500 3266.849900
1594.325200 -903.349370 2542.395300
424.601500 -1385.211500 3728.832800
-645.888300 325.847170 1161.805700
1189.670800 -580.034240 3644.187000
418.828640 75.699110 3657.953900
584.922500 -388.804350 3699.901100
321.388280 657.132700 2748.172400
-46.604070 687.859100 2749.977300
1016.744000 -513.498540 3661.898700
-703.877600 -697.643740 2829.790000
2056.542200 -1589.621100 3353.167000
271.854580 505.292300 3448.786100
-122.469185 -1318.754400 3683.728800
-558.223200 -1116.238200 3519.065400
1888.810500 -1696.391000 3352.215800
-455.978240 -1135.540600 2485.577600
-66.703476 -1689.291600 3396.209500
-545.131650 -1090.080900 3622.489700
-618.851560 266.764040 981.205260
909.413200 -1505.940000 3674.224000
-720.068900 -743.194100 2662.108200
434.692600 -1325.108800 3910.069000
-539.317400 -360.200900 995.620500
149.361080 671.612850 1336.030900
-707.344240 -966.364000 1912.062400
253.092030 417.269040 3582.313000
-514.540160 -1223.283400 3244.553700
2067.791000 -1083.608300 3258.474400
768.240050 308.044430 1389.730100
265.015530 727.602230 2074.558600
1189.439600 -518.492000 2660.950200
-50.979443 485.706240 917.726870
367.550000 614.826700 1686.167400
-230.506060 146.847300 1287.574100
518.749200 192.059720 3589.046900
494.940900 394.950740 3560.845200
-325.217220 -1610.393400 3488.660000
-282.629060 159.265900 1901.470600
753.764950 -984.480960 3746.414300
-468.923900 -1283.942100 2955.048600
410.570220 -1651.622100 3011.290300
99.668700 -1645.870100 3384.117000
1781.556000 -637.747300 2910.107200
-641.353640 -948.386200 2030.968100
