ply
format ascii 1.0
element vertex 1341
property float x
property float y
property float z
end_header
423.191800 -417.288330 862.083100
-862.009200 107.914740 2389.843000
97.964430 -318.533400 1284.833400
-206.021600 -93.119870 1659.825300
-1156.806900 -746.546940 2642.948700
-1005.444340 -1252.966600 3758.859100
-953.450800 200.052750 1801.861500
-664.064640 -78.390830 1746.514800
176.913360 398.761000 647.251400
-1466.232000 -796.134700 2955.532500
914.886900 168.267060 1780.159000
-1464.057100 -998.929500 3725.003400
-1118.365000 -138.065810 2905.546600
-728.215400 -1724.513500 3645.490700
-1787.705200 -1924.880500 3457.264600
-1162.216000 -698.206670 3801.270800
-1367.030400 -638.382140 3528.764400
-1446.982000 -314.452120 3560.066400
-1449.911600 -363.278440 2576.853800
812.572500 -415.630130 1355.992300
-584.827640 -770.913000 3744.336700
-264.386870 253.024770 1550.708400
-1334.019700 -1060.748400 1785.645800
-1375.942500 -448.059940 2310.385000
9.225662 156.541530 1866.026500
-1707.007700 -542.154000 3282.839400
46.350395 -1270.140500 2495.492400
707.333200 -735.300300 2856.587000
-1311.477800 -1766.229100 3671.129600
597.097700 220.310820 1013.946530
-414.945430 -1212.367200 3695.173600
187.313840 -96.079670 863.527600
336.042240 187.892750 1412.859500
820.633200 178.451680 1458.177900
-898.009500 -972.055500 3778.780800
578.483340 -587.848270 1328.128400
-1309.179700 -769.504900 2271.104200
-1437.604500 -2025.314200 3650.243000
-1008.841400 150.532100 2158.534200
666.140000 -1545.111100 2794.337000
432.884300 366.795260 552.817440
33.463410 -555.025940 1569.219400
459.561770 -191.424300 624.243200
-1247.294200 -588.089050 3108.965000
53.279446 -15.528431 1642.141000
-541.823900 169.210630 1901.780000
-377.036040 -946.549740 3713.129200
5.399676 259.521150 1091.875900
-1727.474600 -465.450700 2794.560300
309.459400 39.266876 1055.808700
-1656.748500 -251.393200 2347.752700
-197.947650 388.909330 629.363700
-1824.353600 -1582.963400 3666.098000
-1086.457200 -58.081882 2033.868500
183.592740 334.117600 919.315800
-1599.957800 -527.826500 3042.878700
967.170200 72.180250 2290.376500
-23.135365 233.714900 1620.229900
-1047.524500 -766.087770 3585.717000
-432.464570 11.996566 1712.792600
-1351.607500 -752.255700 1880.612300
-1497.997700 -718.089840 2089.576000
-1354.304600 -1533.535500 3606.547000
-1232.761000 -536.067260 2751.365500
-1189.045200 -2025.325400 3649.576200
-1249.435500 -247.119020 2415.622300
-225.523830 289.384300 1206.392200
-1753.364700 -1815.933000 3672.785600
-1360.342500 -1043.770400 2260.320600
-1202.630900 122.298950 1718.587400
-1292.385100 -1238.717500 2443.387000
-1043.992400 -712.478330 3134.998300
-1576.137700 -1415.334100 3709.755900
843.690860 -288.967040 1561.200800
-1353.529200 -403.067140 1907.952400
717.762800 -30.043016 1708.616800
414.232240 175.677230 1805.355200
-1090.624900 97.241806 2450.033200
-1627.651100 -491.901200 3728.979700
-1334.300700 -869.365200 3569.426000
-500.531250 342.165650 818.081500
-497.465900 -1688.106100 3634.806000
-1532.959600 -1912.248500 3389.154000
-168.524060 -1620.103400 3595.882300
788.865840 -562.012450 1538.080800
-1219.775300 -219.236330 2135.128000
-850.046400 240.656850 1522.193400
-1378.595600 -747.898860 2746.716800
296.151670 -160.502990 463.481300
495.524050 134.933670 2186.806600
-200.535690 -1333.945800 3643.414600
871.968750 -1336.410400 2849.267000
-1268.633200 -491.767730 2518.021000
-608.223450 290.964320 1168.106600
417.133330 154.417310 698.582600
-1102.194000 -113.765114 2538.775100
-1355.021100 -1161.566700 2039.925700
-630.702300 257.964720 1439.242400
807.394840 -487.037570 2906.891400
-1173.268000 -459.208340 2191.625700
331.241200 -195.790200 1000.187000
132.077510 -1601.686800 3512.117400
-1216.929700 -1187.884300 3779.082500
-944.028750 -1687.128700 3670.283000
-137.805220 -1963.549700 3548.537600
-1219.890400 105.877975 2202.698000
-787.054900 -1206.857000 3742.373000
-448.583340 226.266500 1669.739700
-1288.850600 -445.797000 2950.707000
-1566.035200 -597.456800 3455.646000
831.930850 -1160.545000 2698.576200
-160.282380 -281.811550 1570.895600
178.258260 37.618137 1812.986100
-1567.039200 -412.607360 2223.382300
1033.830800 -218.058470 1665.851600
-750.025800 181.085660 1866.270400
147.797440 172.189060 1318.311000
-1368.379400 3.019431 1940.444300
770.763900 -760.672300 1463.106000
-1558.646600 -1859.405500 3606.644800
497.469600 -392.601170 1348.671100
-543.921200 -1378.539000 3684.048800
486.605740 -1187.721600 2252.702000
22.631998 -560.973900 1056.411500
191.236600 -1403.972800 3545.274200
223.334930 112.571780 2212.034400
183.014680 -294.788730 804.652040
-1753.247100 -292.601900 2684.655300
758.104740 96.789830 2279.832300
-295.284600 344.665470 803.630700
412.076140 159.506330 1225.613600
595.451660 163.604000 1898.071900
-785.399700 -2006.457900 3615.124000
641.648130 -932.825260 1678.372300
98.800380 -236.153230 1096.309300
-11.927391 -1256.085700 3646.502400
-1539.785600 -1179.742800 3680.992700
-154.373230 100.190994 1692.648800
509.076870 186.139110 1528.559100
-945.092040 -1443.641100 3721.303000
-1285.180300 -618.225400 3316.929000
416.577940 308.628480 1027.062000
390.617100 -386.411470 1071.904300
-1068.796400 -1060.287400 3839.295700
-1408.426000 -416.936900 2098.990700
-1203.899800 -754.993200 2449.650400
-1229.356100 -1394.710800 3750.446300
-1101.167800 -556.251200 2600.624800
-1361.839500 -663.726800 3725.456000
-1117.133000 -1791.681400 3668.498300
1330.174100 110.143990 2592.915800
770.495700 74.347550 1871.460400
836.093570 -1598.945800 2870.095200
-159.909000 311.844100 1001.775200
120.037380 -404.368440 1470.870700
-384.982900 -1987.101100 3589.045400
-1124.046800 -394.320070 2390.363500
240.247760 -477.502930 851.518000
-1184.965600 -431.690640 1996.731600
-1595.475100 -470.937870 2655.635300
-1043.486100 35.695927 2873.005000
-724.906000 -899.956200 3732.933800
-1048.382800 -855.489200 3764.532200
-948.234300 163.040680 1339.445900
126.975130 216.561400 1501.348100
-11.333274 381.029800 660.631350
550.385130 -490.776700 2321.944600
-1062.773100 -136.787980 2722.115200
-1571.388200 -849.529700 3442.696800
-928.674500 176.521210 1986.182000
-1489.720300 -333.492500 2399.168500
142.717700 51.857117 962.777650
-630.950000 -1560.970100 3663.771700
-1206.721700 -685.358640 3624.555000
771.797360 256.980000 1301.011700
298.078160 48.687520 862.715500
885.393740 134.318160 2004.641600
-1420.742600 -554.316700 3059.172900
376.483500 -327.732940 711.507800
-785.851800 305.038330 1109.397200
799.744800 195.822980 1644.365500
-1408.651000 -486.086580 3611.093500
-72.208626 -425.182300 1627.696400
-1387.256500 -810.844540 3113.330300
-1443.772200 -665.766400 2320.719700
-462.905850 255.683180 1495.310800
-611.246030 -1222.249900 3726.427200
86.997460 -420.493680 1142.602500
707.691470 -1085.668000 2796.425500
-1310.031500 -592.273440 2225.456500
679.896100 -228.724200 1596.860600
611.860600 -622.384900 1495.735100
-988.988460 226.954350 1628.648400
-1322.582500 -753.099370 2081.711200
-242.683780 274.134120 1379.090700
-1040.820400 -257.658700 2458.932600
290.800380 205.300900 965.579300
-1576.662400 -379.677250 2803.173000
-372.716950 -148.827550 1675.413500
-593.384400 79.712364 1762.360400
-1323.542400 -1085.090500 3673.782700
520.243040 -327.514560 974.441900
650.754640 -461.837620 1420.943100
-525.886840 311.561200 1012.047670
49.784570 -141.441670 961.048900
-1262.455200 -609.309900 1845.888700
715.767100 -1405.874500 2882.117400
-1240.007100 14.468413 2057.496000
-849.707000 136.649220 2221.260700
-927.760440 88.089820 2572.753400
-1394.437400 -498.877000 2664.486800
-619.112600 -232.577030 1688.786500
1124.768000 100.188410 2215.316000
-1779.912100 -352.314640 3183.141000
1059.438400 83.742610 2446.156200
-1149.599500 -793.952940 3453.020800
-425.763300 294.471470 1149.931900
518.356140 281.820500 1161.212300
-128.341130 -1782.602400 3564.261000
-1394.087400 -1879.237900 3577.180000
-1360.647800 -199.820650 2034.624300
180.489580 147.083850 1945.502100
-244.203340 -841.553700 3693.535600
-806.400700 -1582.196500 3688.440400
-50.274765 -150.029740 1633.468100
157.728620 189.169480 1066.729200
-1628.428100 -2008.918600 3578.937300
-1339.862300 -923.319100 1883.022100
-1630.607700 -419.949950 2378.774400
367.963650 -296.069730 528.804440
1034.126300 -30.014496 1693.015000
337.485100 377.591520 688.871000
518.698500 32.949700 758.310200
-336.741000 -1657.615700 3612.776900
380.499730 195.345100 1638.446400
-540.387150 -928.325870 3722.535200
-484.218140 -1853.605700 3603.463600
-1077.539400 -638.116940 2740.259000
379.174470 -49.412144 603.162840
-622.081500 -97.434425 1589.774500
-385.981140 141.907970 1951.397200
-1341.076300 -902.152800 2367.772700
-1380.334500 -500.860840 3441.876500
-837.098100 214.974950 1688.430800
96.351990 355.878300 782.373170
521.927200 -523.751700 1189.841100
282.840820 257.627750 811.754200
-11.653504 -1664.014600 3563.222000
-1115.539200 199.393540 1830.479500
-1413.185400 -1339.784400 2373.397500
-1758.843600 -317.087740 2849.568800
483.824740 151.783000 2013.723300
264.029400 -139.033300 728.467200
-1531.972200 -336.419740 3695.156200
517.853600 -462.404000 2159.378400
1175.381700 115.240930 2552.654800
-1720.975700 -1461.247700 3657.428700
-1810.966300 -1953.830700 3615.850800
-481.675660 -1075.445200 3742.069600
663.251160 188.422970 1480.718300
-1416.217800 -469.840420 2463.122300
-428.614780 -796.276370 3718.180000
374.439820 218.978320 554.674560
79.083500 134.364850 1713.279700
-115.744560 264.834400 1495.558800
684.347700 247.236860 1169.489400
115.058270 282.729000 1204.770100
-828.890500 -1846.484500 3642.907000
-1305.995000 -715.637500 2601.355000
-311.099730 -289.853450 1618.174600
-1360.653100 -900.307740 2195.411400
-1007.222100 123.678730 2319.255400
-1604.866500 -341.987060 2561.119100
-314.372220 -1092.066800 3694.109600
-1256.454100 -1622.207500 3699.477800
517.982360 230.044720 876.705000
-1575.017300 -554.200130 3200.731200
-1124.832600 -711.313400 2985.904000
-1080.097700 174.531000 2021.240800
883.943850 -439.837200 1491.890400
812.010900 49.166576 1554.008500
-1288.601300 -639.627800 2390.279500
-1422.408800 -1672.227300 3617.551500
-1613.237400 -593.502800 3604.248000
-1212.480000 -402.442500 1846.502400
-925.724800 -1122.590700 3767.434000
-141.340680 158.709730 1892.733500
-1506.345600 -1517.809900 3609.082800
-705.067260 -686.512450 3786.307100
-1213.538000 -656.972700 3474.421900
-1011.257700 -680.473940 3815.523200
-1790.417400 -278.743320 2537.673000
-675.679100 -1865.939500 3624.401400
-1554.749400 -453.299130 3584.199200
904.498170 103.208940 2155.384500
-782.101600 -1064.842000 3816.057600
-1238.330800 -720.630100 2795.785200
191.607390 -137.618580 1012.939900
-1388.456200 -1057.852500 1931.409200
-1333.249800 -1184.738800 2305.826400
39.051840 325.851840 961.572800
-1179.469200 -879.661130 3572.323200
-516.492550 -113.460365 1698.289100
-1622.184900 -503.710140 2896.729200
490.491420 -295.849200 803.070800
264.232200 172.853880 1824.581000
-1317.229700 -345.507750 2505.167500
425.342200 -410.613370 1214.990800
-1162.480200 -619.078370 3227.049600
-1081.549900 -1378.600000 3736.988300
-301.777500 82.493120 1713.640500
644.177400 76.004260 1789.137600
-1198.344000 -195.925280 2279.614500
381.717960 173.454860 1081.742200
69.224100 -258.249450 1416.460600
-351.726040 -1342.640300 3667.541300
135.259490 -1277.817000 3596.421400
-219.417790 -1486.110600 3628.294400
-427.134300 181.057970 1810.087900
-70.916560 286.051120 1218.686900
-905.324800 -825.238300 3764.709500
87.418810 -425.566440 1612.364700
812.166560 -1476.464500 2794.871000
118.442840 -437.313350 782.535600
-195.683430 -982.382450 3733.324700
79.098175 -493.892700 1267.824500
-1274.091800 -1394.053800 3612.141000
633.204830 -408.604220 1286.833500
-1230.259200 -1886.062300 3663.937700
-241.802080 215.555590 1688.944200
685.141600 -395.160280 2027.611800
428.958950 -25.979576 1004.447270
991.514160 112.563484 1909.540000
-1448.450400 -598.843200 3358.947000
-1404.803300 -662.009160 1979.105600
-1128.336400 -153.513850 2401.063500
320.829070 -319.782840 885.646670
-1360.933300 -587.280800 3196.151600
333.328900 -116.158226 856.321900
-334.918670 375.086360 668.235840
135.522580 -252.533920 934.490200
-1717.843900 -1678.999100 3655.681000
-877.128230 -1316.417600 3735.637000
244.936370 18.874697 436.259460
906.732500 102.322140 1655.301300
-662.196800 277.168820 1302.411000
-1231.178300 -470.188700 2338.086200
-1069.154000 -595.478150 3060.049600
-1409.870800 -1421.584600 3679.693000
-1145.955400 66.741905 2315.842300
-1724.943700 -565.695860 3428.658200
-1114.081000 9.175070 2153.963400
982.013060 -310.532350 1570.966800
-1242.136800 -125.381516 2030.797100
234.888170 157.698200 1208.372900
-1.925636 -1948.117900 3520.888000
-58.539764 189.715420 1747.133900
-1349.802700 -1049.661600 2121.425500
-87.498120 -15.672836 1657.704300
748.873600 176.765690 1771.388900
-1137.933800 -224.422680 2797.850000
-1137.640600 -411.608250 2539.179700
328.512150 117.636600 2313.503400
-1469.855500 -1966.923000 3498.436000
766.136600 -402.201000 1553.142700
-1079.674200 -684.452100 2547.770500
-579.191600 242.166150 1567.665300
-165.702710 354.561340 759.916500
-281.723240 -1222.549600 3665.004000
623.029700 52.233130 1654.704100
-666.505200 137.085630 1964.806500
65.928140 -517.029800 927.796600
-1078.483400 124.709990 1633.968500
-1525.192600 -244.976380 2302.337400
-499.786770 -1526.822400 3654.522200
-1190.765700 -566.069800 2907.904000
-1341.240000 -1075.618900 2389.764600
-1345.274800 -946.204600 3679.465800
-1533.520500 -455.499820 2527.134500
-1741.128500 -445.295800 2661.328100
253.047550 188.452770 1542.562300
-484.856870 -682.140400 3758.737500
264.757500 -392.245030 745.964360
874.634950 -818.127600 1618.001600
-1504.465600 -1303.178200 3716.409200
198.268970 122.763790 2076.071300
819.932860 52.711030 1414.708400
-1693.413600 -518.744900 3137.012000
-1103.050200 17.833070 2556.945300
-1344.267500 130.833040 1913.510600
-1317.637300 -540.477360 2853.302700
-1057.025800 -736.847050 3281.786100
-763.047360 256.135680 1423.378500
-1297.947500 -1325.006300 2309.652800
-1174.800300 -534.675400 2078.740500
252.992550 -32.836994 960.819640
-1409.254800 -378.846900 3716.437500
-720.481450 239.293580 1547.516800
-1382.662700 -1165.743000 2181.370600
-1036.057700 -686.928900 3481.027000
253.093200 314.249660 1028.340200
-553.728760 202.697540 1743.514900
-1132.423500 -22.616516 2410.003200
931.937700 -190.931430 1560.483300
-1426.483000 -681.316700 2191.548300
-1056.127000 -2012.130500 3613.786900
-264.751250 -1940.213700 3560.144500
-1304.137000 -1971.454800 3600.388000
512.645940 173.168080 1390.593800
837.949040 -71.131996 1685.315400
-1512.352900 -793.008600 3139.508300
460.378080 44.176460 639.178800
226.253430 361.976300 760.571530
-978.729400 -1564.328600 3691.754600
-1165.043800 -276.675400 2508.520300
-1209.936200 -410.952940 2769.548800
-1360.002600 -769.155760 2888.634300
-1658.902700 -1135.372700 3696.930200
-1190.341700 157.478230 2084.084500
-1681.753400 -1893.112200 3597.272700
248.590090 -206.089260 889.544250
492.621060 111.121810 2313.292700
-258.580500 300.998140 1082.138300
-1413.293600 -1173.157600 3696.265600
-1169.313700 -577.182900 2253.088400
-1348.951700 -833.188540 1980.811500
-1145.512000 -114.026115 2144.680000
-1284.082500 -671.290500 3825.948700
662.731000 -828.749400 1464.108300
195.747880 -230.112870 672.046260
-782.652600 -784.705100 3764.679700
-1069.475600 -1675.223400 3685.910200
-1284.875600 -438.111450 2134.869600
118.566850 309.499050 1059.329000
-1580.763800 -575.380100 3325.482200
44.307404 -1207.644300 2385.360800
-1645.310400 -358.494800 2689.473900
-874.008800 191.678130 1232.398900
390.030180 161.416180 1929.388100
-607.328500 -1759.917200 3636.668500
-1259.711300 -873.172000 2471.411900
-895.256400 258.711060 1402.374900
139.249740 157.993400 1824.264500
-1694.805200 -318.228360 2466.021200
-196.063430 331.967560 879.776600
347.849640 145.208150 2158.537000
546.750400 -483.934100 2447.075200
-1148.245500 -838.521400 3690.751200
-346.297730 264.183720 1450.450800
796.560360 -1264.397700 2780.173800
-700.803470 -1310.171300 3717.778300
-872.414700 157.883910 2100.567100
-1256.848100 -50.209590 1924.352700
-1093.913800 -1167.870200 3781.638000
11.397543 258.580570 1482.527200
-315.307980 -39.004100 1685.541300
-1272.493900 -1495.947000 3691.973900
-1493.722200 -527.527040 2950.762700
-391.718930 331.662140 880.577200
-1122.869900 -516.167600 2474.272700
215.086440 229.452260 1405.013100
-1204.943800 -514.231800 1900.265400
526.981930 314.624540 966.506300
422.543100 276.202060 722.488400
-140.880100 -1224.015100 3639.376500
-33.064000 94.360720 1670.599700
-1117.413100 -954.151060 3791.121000
-219.097300 -215.531050 1656.956200
-1195.340000 -1116.930500 3680.893300
-514.558040 364.113770 697.378360
-1639.276200 -1307.492400 3692.641400
-147.177020 241.732160 1615.348500
-1641.581700 -1773.813100 3639.960200
-1012.986200 -752.166600 3708.798300
-1471.445100 -1778.592800 3577.047400
-324.115400 283.040680 1283.825900
-1624.796100 -1536.227300 3646.044000
157.125180 25.828087 1691.884900
-617.670500 335.601260 860.036000
101.469250 220.438860 1620.853300
-994.578200 -1798.104900 3664.934800
51.568930 -207.003860 1267.617400
-80.780880 -1353.247600 3615.578600
-1719.970800 -390.582670 2938.345000
94.414635 257.061400 1386.705000
923.790100 -1405.716600 2759.592500
-1263.863200 -1225.557300 3673.896200
-1726.295400 -400.847530 3086.055400
707.216800 178.053040 1366.116600
-1086.872000 -215.846220 2601.881800
943.267460 -555.194340 1537.653400
352.088530 298.431920 916.874800
-138.792800 296.337950 1119.317600
1100.182000 92.644270 2332.828000
-1025.983200 185.847580 1909.215200
819.232850 -739.373400 2813.754000
104.641720 -1485.896100 3556.664800
-1497.991100 -432.982820 2319.058800
-1054.126800 212.231260 1728.748500
-1105.639900 -1909.671300 3655.125700
171.520370 55.043827 1078.247700
-1150.952400 -1286.086000 3764.868400
-70.245970 -1554.730600 3581.238500
-1555.587800 -1963.135400 3664.627400
333.238500 59.087210 618.882140
-971.365970 109.960270 2436.123500
-810.359130 175.567780 1976.631200
860.928200 152.484860 1889.927400
-405.486540 -1765.090600 3607.956800
-115.579850 -322.903780 1672.701000
-1282.949600 -1118.643300 2483.511700
-664.211700 192.814990 1785.640700
481.373080 197.595540 1020.788500
401.674770 264.554170 1156.994900
693.833700 136.549670 1957.527700
-1518.852200 -327.689500 2158.025100
362.319500 -175.611370 559.345800
-1278.166700 -1839.107800 3567.671400
406.563170 -352.555100 960.152400
-1244.414100 -513.015600 2630.667500
-1110.197800 142.691400 2218.072300
-548.293400 280.828160 1273.793000
-926.952900 163.944350 1462.426000
-377.007750 248.721370 1579.342400
-1597.350800 -491.775540 2780.387700
-145.177640 279.944550 1316.313600
687.676000 -711.120700 1527.039800
-1416.580300 -617.353700 3631.412000
695.135200 198.076430 1591.663800
861.751700 -835.057070 1443.742200
764.201200 -1062.837500 2698.151600
316.200470 -44.398136 506.378970
-676.548950 306.581900 1072.516000
-1056.815600 -25.923948 2764.677500
-1106.711800 -555.673500 2815.219500
-1816.448000 -1827.835300 3577.182100
37.180424 -1344.041600 3590.903300
-1333.800700 -469.666000 3053.872600
-719.473630 287.897250 1201.761700
681.880800 -517.754700 1516.436500
116.051020 -51.170895 1007.438540
44.171448 -548.457760 1168.584600
84.670870 -1715.978500 3528.667700
-562.112000 140.501820 2011.631100
-401.301060 352.833250 761.326000
-177.327700 183.885790 1784.720700
612.402500 -303.967530 1650.749600
-634.143900 -1448.529300 3683.463400
267.948400 167.555510 1099.648900
-237.064070 -1717.701200 3593.171400
-1428.887200 -431.380950 2210.890900
-1288.020900 -561.515600 2966.738300
-1100.719700 -693.229740 3665.068800
-1087.588500 -60.683760 2638.198000
-1472.998300 -579.678500 3249.659700
-1297.753400 -798.760700 2386.088600
-346.875980 201.567580 1729.628400
-1109.639800 -677.204900 2841.899400
-876.231450 182.967930 1884.634000
465.885500 -461.465940 1113.820800
-1392.032000 -639.224730 2089.095200
-841.039250 -1731.498000 3658.282700
-904.033000 -2005.644700 3609.194000
301.772000 172.710560 1297.849100
-525.300230 266.178440 1400.201900
-606.443300 -6.508277 1653.645800
-1305.374600 -696.635560 2177.108400
375.770750 177.993500 1527.807500
518.941830 192.280090 1653.357200
-1203.875400 -1720.463300 3689.796100
-1300.536300 -700.086700 2490.792500
226.844530 -1309.283100 3498.005600
-1305.849200 -1347.747600 2423.823000
-695.574400 -1135.978900 3742.602800
-658.699650 103.954830 1852.196700
-1295.161600 -418.763550 2001.890300
-1043.976200 -634.110300 3213.579600
-1378.205200 -479.698000 3175.888000
-1186.454200 -217.331480 2005.237800
-1223.345200 -401.091000 2470.475300
-1352.747600 -103.809620 1917.468400
696.639700 134.478030 2183.885700
-1270.503700 130.238070 1832.469800
-1310.742100 -630.172240 3431.536100
-1087.626000 -27.666416 2950.666700
1254.443500 77.999504 2471.819000
-53.498276 -256.131930 1597.398600
-516.128000 -1273.917800 3699.796100
-483.424680 102.930260 1745.781900
-441.459100 -1411.918500 3666.519300
281.151000 -284.370360 745.629000
-1700.821300 -1548.949100 3723.269300
42.609640 -175.739550 1582.330100
-1054.867200 -751.866640 3389.811800
-1185.357000 -578.729250 3015.947500
558.458900 177.750050 1779.745500
-218.441540 11.836698 1685.256000
37.875660 257.832860 1276.926900
723.394900 37.779040 1616.166400
123.445885 -530.091900 1623.991500
-1515.880000 -499.066900 3494.145800
150.332370 -195.792860 843.542900
781.641700 -446.920000 1454.772200
111.944390 -448.441130 1372.540900
355.165200 -34.128777 926.039060
-855.033400 295.519560 1199.388900
-1268.582400 -1685.663100 3610.874500
-1265.099400 56.524120 1937.008900
117.300316 -340.049530 1074.928700
-1115.522300 -681.737800 3553.495800
311.399500 187.112760 1726.449500
-1272.905400 -1010.469900 3732.294700
-1542.237400 -359.136170 2646.778800
79.603480 -470.612340 1044.736800
-1173.425200 -417.905760 2668.754400
-1013.309300 -984.309200 3787.491500
-53.515860 310.779300 1015.628360
-1301.242400 -573.287660 1944.877700
-119.743250 -1456.167100 3602.978800
-1268.670000 -946.485500 3604.317000
139.712370 -371.513120 865.427860
-1340.737900 -533.705500 3535.557600
619.861270 -886.350950 1584.643100
-1224.528600 -383.986450 1724.095200
-1137.591900 -1067.871000 3755.784000
1001.305300 -109.783280 1630.564800
-1728.509900 -1364.614700 3702.897200
-1252.929900 -738.999760 2691.990500
-60.020973 -1861.980500 3545.418000
-1387.109000 -539.824700 2933.775600
-1461.058600 -419.548030 3547.020000
-1335.136100 -669.373300 2299.808000
-849.004150 -1485.874100 3700.306200
389.859160 301.958560 625.074200
481.653080 -1272.968600 2315.072500
-1580.205700 -1959.106200 3471.227300
-1262.025800 -1294.528200 3757.910000
-1359.444600 -796.567900 2170.648000
34.623177 -142.057420 1065.417100
36.890213 -1566.416000 3563.280800
522.379640 -380.779820 1246.941500
-1726.768200 -1984.330000 3519.397700
-1300.143700 -473.157680 2417.554400
17.431444 -1259.619500 2273.471400
-1479.972700 -495.852100 2725.133300
-1685.310400 -493.729300 2979.776000
-1100.276100 -541.299300 2704.330300
-267.789800 -1578.725200 3613.681400
-428.300380 -1609.631300 3638.477800
-186.577090 -1869.049300 3558.512200
-685.718260 -1975.241100 3617.727800
-1503.514600 -342.009860 2266.565400
-828.843500 -902.269350 3743.880400
-322.659180 291.763280 1164.254200
744.066500 -1177.528600 2758.523400
-1376.087400 -539.646700 3709.006300
-1152.254800 -646.122500 2617.810800
-636.291260 -955.364560 3750.478000
-518.385560 -1168.178200 3714.583700
383.969240 -266.298920 626.449300
-768.103300 200.404620 1766.411100
-1682.006700 -373.208980 2803.506300
342.656130 23.530085 2413.089000
324.808400 350.287840 788.674260
-256.443420 317.900300 962.154000
490.992400 204.094770 1274.519900
-1489.177700 -477.264300 2617.492200
-1045.595200 -1472.776400 3716.265100
-1435.094200 -588.439200 3460.364300
478.300380 193.190430 1128.000500
-385.024500 -1879.331200 3595.876500
-482.698550 -1955.651200 3585.895800
-1538.014600 -1741.615700 3670.568000
447.771900 -440.965330 1006.550660
596.235400 221.177570 1124.299400
-1152.104200 -1459.098600 3731.780300
-1322.824300 -727.055540 1982.937900
282.245030 -261.242830 472.195650
-1400.353600 -480.873400 2564.213400
-1615.981400 -1219.408800 3738.419200
-1671.219800 -589.128100 3516.507600
-515.857360 -215.323990 1696.801300
105.210920 -503.114100 1490.931800
-533.863300 2.634911 1724.461000
-951.605350 238.867080 1528.676600
283.815000 161.123260 1923.707800
393.556100 -327.278930 811.744800
1024.722300 105.289310 2197.972700
472.379500 188.936190 795.679750
-1651.161100 -450.882400 2570.266000
1233.007800 68.567986 2630.990700
-523.222350 297.999800 1112.629500
-1387.914000 -1241.493900 2371.740000
-1607.508700 -317.322000 2414.306600
-487.253420 324.895840 919.216060
-326.394000 -784.554900 3709.459700
-1333.582200 -522.321660 2755.008000
-1478.252600 -1600.320100 3661.414600
1374.589200 84.559784 2679.870400
-901.055360 -1219.557600 3750.531000
-237.895600 144.969820 1918.289800
-638.714700 -1664.944500 3648.749300
-1507.318000 -829.780300 3363.468000
540.815730 288.276820 1062.672200
-65.828964 360.758940 742.877600
-1398.510400 -404.695920 1999.623800
-978.977360 -1347.057400 3735.464600
747.803830 -1314.123000 2856.607200
703.633000 -325.885680 1580.198400
-1215.357800 -37.760113 2139.572000
-1214.146200 -745.758300 2560.669000
965.485500 11.442780 1626.822900
82.133026 -300.332980 1512.025500
-1392.649700 -1066.077000 2032.276400
-676.536500 -811.416800 3744.728800
-1524.141600 -547.791800 3114.623300
-730.163760 -998.729800 3761.525400
86.645386 377.326500 684.543000
806.456700 177.634950 1355.618800
-1382.683300 -649.891360 2421.762500
789.388800 -37.039143 1605.232700
-1595.793800 -399.697880 2473.395000
-1027.729200 86.463180 2526.028300
-1210.945700 -577.099850 1762.407800
-1489.507400 -1114.400900 3735.684300
-1408.990100 -1152.215800 1952.645400
778.031100 -230.649050 1608.374800
-1340.880700 -1622.181000 3648.185000
-1404.713900 -1223.246500 2098.931000
-724.179140 -1528.187500 3680.992400
233.283510 92.243110 2310.797000
-1365.245600 -848.799440 2087.311800
-1723.532200 -1969.398400 3658.192900
-1271.666700 -255.466060 2307.061800
598.886900 195.064330 1567.645400
-1128.902200 183.754610 1936.473100
100.247520 -323.485170 1186.779000
-1377.446200 -949.625370 2289.910600
-270.083980 -1403.690100 3644.896700
-1486.527000 -1946.192100 3597.051300
44.600418 340.390530 864.243400
67.621284 211.725190 1033.128500
-38.798000 -495.002530 1541.496800
-1475.549800 -384.998300 2481.196800
-1528.613900 -436.213600 2412.340000
-1357.628900 -522.396500 3339.472000
-274.166600 -941.345800 3691.890600
-437.010040 304.930600 1053.386500
597.074160 -431.565100 1496.724000
-1769.789300 -353.774800 2759.727500
-97.287530 324.691560 928.139800
96.317090 214.280750 1137.749300
-1377.824300 -1765.286900 3599.387500
276.028320 -143.879380 1060.951200
-1142.360000 -503.337070 2317.252400
-878.157600 -1057.401400 3827.515100
-1618.544200 -1712.166300 3715.925000
-964.444030 -904.994200 3756.813700
-1112.635000 -216.530690 2699.149000
7.913063 -371.014400 1603.925000
-988.311000 166.653850 2065.348600
-1046.231400 -632.557560 2623.494900
-249.253810 364.320620 711.856700
611.566300 181.913760 1399.243000
-1497.521000 -1468.850600 3691.904300
-1192.066200 -1046.339800 3610.236000
-1205.484500 -488.323940 2432.734000
-1453.854700 -764.518200 2865.271000
-1344.311000 -1968.140900 3512.811800
-575.366600 -1881.690400 3617.333000
-1333.920400 -448.724460 2216.926300
-1493.394900 -778.287700 3046.429400
535.160300 -351.406200 1066.960700
-1075.920900 -88.383446 2835.058000
-892.424000 227.436770 1607.322400
243.363450 -207.641660 792.301400
957.848000 121.549640 2066.169200
104.398605 -404.634980 1237.630700
-102.105370 386.737700 630.482670
-385.911870 113.301790 1756.327800
-390.504330 -1046.652200 3747.208000
276.628300 -121.673960 934.595760
-1262.612400 -679.760250 3701.879200
-1099.482000 159.223530 2113.635300
-1112.384000 -199.342590 2483.570800
662.270450 162.283550 1825.959600
719.276500 -410.732600 1375.706200
408.456800 145.322110 2076.991200
442.839260 327.389600 922.684630
-1111.457900 -608.801300 2493.451700
301.953200 48.788610 958.091400
329.215360 289.716860 1084.651200
-388.209350 -240.546620 1645.176300
841.856450 157.103440 1568.291100
-1196.540800 -441.194460 2099.624500
-930.906500 212.792830 1703.828500
-1294.084000 -826.666930 1867.211800
-1198.076200 -633.771300 3351.515000
730.972050 -1491.073000 2841.899200
905.800840 -357.556240 1533.908000
139.212920 106.426970 1645.065400
-1586.249100 -290.787170 2245.927700
249.597350 337.660220 850.451500
-1339.760500 -858.715760 2281.775400
450.264560 -268.716770 721.566100
208.314010 268.031250 1229.118700
-940.124600 -736.044600 3780.144000
-1366.570900 -1022.249150 3737.396500
-1807.009400 -1747.995000 3634.858200
376.506470 144.767360 613.801150
-1288.546300 -656.989700 3577.914300
-610.991460 -685.355100 3778.359000
-917.927600 128.135300 2285.964600
-1746.126600 -334.633300 2599.494100
-721.247440 -1621.842900 3664.157000
-1168.913100 21.746485 2236.124000
-860.057070 197.867610 1785.522600
-126.837814 -204.274220 1638.112000
454.859500 -366.189180 1137.381000
-1224.062000 -571.806000 2176.967800
-763.553800 225.372240 1631.021900
-1203.146500 -491.908720 1809.171600
-399.550080 -707.403440 3729.045400
-206.957810 264.856260 1473.949500
678.027600 246.724380 1272.928700
-457.632020 -884.828550 3708.661600
-604.614400 -142.377320 1712.680500
97.502530 -106.364970 888.545000
1161.504300 70.935920 2463.380400
-1432.905200 -914.495240 3672.006000
-601.988800 -1122.439800 3730.603300
-30.957829 -1754.374800 3547.222400
-1716.062900 -479.485170 2886.167500
173.383220 293.658000 1132.978400
-108.992090 -1686.921400 3570.175300
557.955140 -418.832430 2380.286000
-1174.931300 -234.866100 2360.584700
-1357.538100 -975.646600 1961.340800
139.328860 177.214110 1416.606600
-1051.654700 -654.416400 2986.563500
-1271.966100 -217.971950 2058.582500
-832.403800 -1121.306000 3762.562000
-1274.201300 -609.050700 3220.225000
268.345280 -50.979527 865.650630
-756.770140 -1910.172900 3628.923300
-1164.503500 -1631.053700 3699.398400
-1404.120200 -369.503100 3624.713900
-81.247080 138.140950 1825.836500
-548.272770 228.590730 1655.219200
-849.538500 -1937.748500 3639.420700
537.710140 -417.559630 2267.438500
805.783600 -1405.766100 2862.402300
717.097400 191.179760 1684.847300
577.384160 -440.650480 1369.380100
-1186.198400 152.232670 1866.109700
-1217.801900 -533.073400 1997.323000
35.229378 -105.816230 1643.062700
-884.168330 229.199420 1315.934800
-1330.629500 -571.737240 3065.237300
-145.668210 207.927430 1700.825100
740.990840 51.514576 1787.553800
-607.524540 -1315.671500 3704.559000
-591.702760 322.079130 946.990050
857.212600 -799.178900 1530.096700
607.096400 -484.217620 2206.396700
875.551900 24.593410 1615.155300
-139.789730 272.323600 1407.365700
-1600.924100 -396.407230 3691.118200
-1621.246100 -1897.376200 3528.827000
-548.371950 -1612.864600 3645.218500
-1414.485500 -1075.721600 3674.537600
38.171528 178.815500 1781.761500
218.718700 -222.986280 974.133670
-1242.974500 103.762146 2032.380200
102.743930 -454.519380 872.440100
-970.291700 69.076220 2651.020300
-1155.300300 -13.870878 2075.211000
-459.904170 -980.746300 3729.023000
156.362780 183.717850 1736.477300
-1362.661000 -627.410300 3812.925500
-1142.750400 -239.447130 2887.319300
-432.804800 264.319820 1410.164900
-1504.398600 -1375.863300 3662.207000
-432.110260 -80.819460 1693.215000
-1263.066900 -1324.815700 3669.543000
-279.045100 -147.837020 1662.245000
-1382.320000 -227.740720 2144.713400
-1010.045960 49.709680 2780.664800
-487.636840 241.337130 1589.495800
17.663048 197.714830 1692.280000
-1012.683350 -1107.384200 3785.879200
-897.450900 -1603.289200 3688.983400
-792.043900 -1340.698200 3718.351600
-424.639280 372.592470 676.451400
-403.442500 286.043000 1236.720600
-433.410900 -1307.965300 3682.260000
-895.566400 98.574380 2483.194000
874.800500 183.197020 1692.301400
491.506440 -322.324200 889.019200
-1794.178600 -1693.326800 3705.053500
177.673540 -1449.346600 3468.955300
-1312.421100 -1158.777300 2407.117200
-1400.205700 -1976.685700 3582.451000
673.092600 114.892784 1713.655800
397.855900 404.536220 626.235700
-1111.605100 -149.725370 2069.731400
-232.090880 -1144.241800 3668.416000
270.440800 326.414920 940.741800
-1228.744100 -828.055200 3518.214800
360.470580 161.494140 486.604100
-1260.211400 -276.529630 2504.212400
-903.162050 -1795.754200 3662.845000
21.085226 -684.686000 1326.618000
94.583490 -194.214020 1017.329040
-1302.573200 -393.034640 1835.488900
-1650.037400 -445.172730 2721.237300
-1717.980600 -396.312870 2429.984000
-1691.902500 -600.500550 3645.354500
-1351.816000 -986.992400 2392.525000
-1374.439800 -1006.083100 1860.357800
53.761723 -199.709950 1163.721100
-1242.539700 -1303.503900 2375.671600
-747.276250 -1811.973500 3637.104700
-405.825040 -1124.407700 3702.289000
-1118.321800 151.261230 1734.106000
-603.192900 -859.911800 3733.453400
-1357.743900 -988.739700 2190.864700
-334.842470 -871.341300 3692.938000
455.914060 270.310760 1226.670800
-556.680500 -1020.794200 3765.795400
-779.074040 138.761900 2159.156200
-1497.269500 -406.103970 2123.391600
171.509460 57.039776 879.366400
172.519940 188.712300 1578.865400
9.119715 268.752960 1185.932000
-326.338130 232.917000 1649.799400
418.249240 364.199800 724.431000
-1457.481900 -485.945560 3402.288800
-1201.213700 -1538.198400 3722.468800
180.633450 -156.671200 927.778560
864.363650 -522.372860 1514.698900
-991.378660 166.692800 1564.856100
-495.067540 288.443900 1203.478100
-1227.526500 84.573580 2118.028800
-862.502500 -1400.720600 3716.000500
-1472.402800 -1863.915900 3623.602300
397.062000 294.879150 517.319760
-118.582400 -96.990670 1647.001300
-1171.172000 -130.580460 2228.141000
53.654625 75.253260 1654.006800
633.613200 146.507600 2020.141000
-1089.604500 -62.750706 2201.538300
412.126300 24.956476 568.929930
27.429653 -71.169550 1014.986000
-1141.810000 -805.604550 3545.749000
-521.253600 -828.682600 3728.730700
264.209470 405.023650 650.455900
-234.878160 -1056.797400 3710.465000
1025.771500 -354.582000 1632.097000
594.308960 -464.796300 2117.687700
104.920654 -1392.760500 3565.891400
-1506.061500 -377.697970 3608.664300
-515.788200 -1772.101800 3621.315000
-998.088260 159.793320 1410.686800
-555.369700 -290.546500 1677.072500
-635.522770 2.685851 1759.583900
-1196.705600 -609.792970 2331.249000
-234.604800 281.795700 1292.911900
-1340.249100 -671.603940 1910.787400
827.788940 165.463730 1805.817500
-1369.298800 -186.155670 1939.476100
-1421.942300 -1503.538700 3653.862800
-702.934000 -1222.781500 3728.531000
-1307.191300 -666.885400 2095.677200
-1277.407800 -721.495670 2352.400000
-1276.636200 -1146.948500 3712.380100
-100.290730 -360.510960 1577.275600
-1304.826400 -577.089500 2140.327100
292.101530 45.564472 538.575400
-1392.327600 -402.201720 2511.593500
222.210900 29.386751 1012.513500
-1226.422100 -124.439140 2115.839600
-1549.136500 -444.172820 2724.602500
-579.026100 182.075900 1823.392700
127.924260 -274.808070 1017.489200
164.907580 347.907620 836.236600
-477.001370 147.293780 1954.079800
-359.687650 274.885860 1365.949000
612.612700 -626.321300 1397.175500
10.334750 354.116520 783.462900
-303.107900 330.651180 888.152900
558.850600 216.183500 1223.056400
360.937900 -217.801330 484.439120
-1337.566300 -1169.899400 3655.680200
344.764070 170.556170 1855.555500
-347.589600 301.039600 1082.655200
-1358.759000 -1112.137500 1872.082200
-1234.233900 -1801.303600 3683.157200
-1078.846800 113.237280 2364.941400
-920.950600 145.653690 2174.829300
1151.073000 90.416440 2641.745600
231.990700 -332.905880 694.093930
-1166.688500 -603.072200 3143.411900
-1322.854900 -2040.059700 3647.400100
362.988650 -114.609146 494.264470
993.708600 -566.176100 1605.467500
179.625600 -378.227000 787.708560
-814.332000 -991.069400 3772.156700
-590.137900 -252.457920 1609.412800
-632.020600 173.474320 1893.321000
-1363.337400 -603.779970 3286.691200
253.762940 -123.561455 811.359740
425.730400 -115.322460 814.332200
173.754430 -58.340153 944.613300
-1329.935300 -1441.394400 3654.905800
388.052520 222.596200 654.849200
441.103940 167.658040 1345.455800
-1448.944000 -1249.729000 3681.205600
479.837800 280.156200 820.041400
261.865940 131.791380 2131.084500
-1654.353400 -1615.610000 3660.154000
42.115986 242.934140 1565.127300
676.110800 85.548100 1892.624600
498.005740 146.563100 2096.769000
-1273.744500 -1600.595200 3601.877000
-479.954930 123.748630 1842.362000
-350.913500 167.437580 1877.669300
313.380900 229.945850 886.585100
-1465.668000 -238.405560 2243.020000
-590.877500 271.167050 1347.549300
-1424.723900 -494.262800 3528.799300
-1091.462200 -316.237800 2497.756800
860.947000 34.937767 1485.993200
7.885212 -457.274700 1600.339000
443.973100 13.181402 725.406740
-1082.532800 -703.894700 3775.323700
-149.198700 -1534.752100 3603.188500
70.975110 294.198300 1134.181800
595.646060 -707.173300 1525.205100
-1698.129000 -1893.701000 3683.784200
-1147.247700 -142.006130 2318.244100
-561.286400 253.940750 1485.828100
-552.636540 -1465.309200 3675.271000
935.244100 -1480.671000 2646.825700
461.950600 292.868440 1095.250200
122.824930 325.817350 977.666750
-1623.247900 -388.999880 2871.598900
-1347.368200 -548.158570 3631.450200
692.934750 -444.298700 1553.756200
994.253400 133.505070 1989.935700
300.410200 197.327000 1616.298600
-1046.440200 -652.016700 3304.337600
418.776370 181.744400 1722.648600
310.608520 125.637070 2230.140600
-1353.903200 -280.104300 2469.490500
-235.469770 124.795296 1780.080800
531.623900 -530.080930 1271.999400
902.290100 -1412.989900 2840.123800
-792.353100 -1664.255200 3667.610600
-594.321530 307.162230 1062.290900
-959.791440 -1045.016000 3820.918700
977.811900 -394.020900 1552.459700
-1058.520000 -710.631200 3053.517000
-56.660027 294.221500 1134.199600
361.755500 154.279650 1160.184700
-1129.542500 -875.292700 3762.406700
-1341.427200 -440.556370 3724.493700
-690.929100 263.635860 1383.045300
105.220726 -370.792330 1548.326400
-1110.887100 -37.016390 2495.751500
-1579.527100 -421.330170 2313.950400
-1552.152700 -572.033570 3532.781500
-583.088900 -63.068233 1717.669600
-1442.540000 -450.162930 2387.637500
944.054930 155.187520 1857.639300
-1069.937000 -769.344540 3468.743000
-1587.698000 -1938.111500 3591.619100
-1662.578100 -548.399100 3214.285400
-1389.003400 -630.940800 2244.113500
457.873750 167.791470 1884.011600
-1285.464400 -193.595250 1975.680300
-102.578830 -1170.387500 3687.858600
-1344.575600 -1130.057400 2244.345200
-1197.009800 -686.061950 2719.558300
245.212480 150.762770 1995.255200
-1187.089200 -506.004970 2523.745800
-1367.121200 -1283.050000 2298.270500
162.074660 203.489300 1184.800200
-828.781860 116.286560 2297.409700
-312.341670 -221.730130 1671.206800
438.231960 -429.649930 1293.166300
261.906070 181.242430 1450.978400
-1332.892200 -659.545350 3646.093500
-1173.184700 -526.928650 2667.317600
-347.850220 -1574.764800 3627.203400
952.549700 -478.299320 1513.178800
-1361.852000 -628.455300 2166.917500
-452.300450 -163.150160 1683.070600
-1738.883900 -1588.990500 3663.810300
-1360.624800 -936.368300 2122.761200
-1503.033700 -542.533400 3036.527600
880.304800 -1520.857800 2783.948700
-1433.514300 -1931.063800 3435.496800
-1274.208600 -408.687320 1923.431800
-576.149500 344.682530 789.179000
-644.807700 247.315890 1519.795300
-1292.019400 -936.854600 2432.422000
923.437700 -131.394030 1626.213100
-51.818290 252.834810 1547.060800
-1771.470700 -1884.114600 3633.281500
-1371.123300 -841.287500 1886.700200
346.346000 225.252530 1020.760900
99.768830 -183.999360 910.801300
-1272.471900 -457.400970 2268.636000
-1082.478900 -744.269400 3198.460000
-1058.561200 67.783800 2602.066200
42.863846 -1161.998500 2307.589800
-1656.387100 -1414.484700 3702.600000
652.539370 239.502880 1354.870800
-1063.922500 -805.432250 3676.411000
806.806460 135.771180 1947.092000
-1575.045800 -1495.497700 3702.774200
-1188.797400 -955.241100 3600.611000
-271.715600 -1302.344400 3665.902800
155.293430 102.017334 1723.637500
-231.023910 -285.045840 1614.624300
514.009500 315.357200 887.283300
-149.926560 286.670000 1236.484000
-207.114730 -1791.173600 3581.184300
-1438.350100 -1771.279700 3651.630100
-326.197240 -1742.457800 3602.968000
326.126900 116.374620 1073.263700
-59.910420 270.078120 1435.821400
-1164.406100 68.958190 2393.608400
-1042.028600 -625.911600 3128.831000
991.795040 -235.649290 1597.068400
154.010060 369.904140 726.754100
743.877100 188.332530 1477.685000
-1082.737300 -140.067630 2643.935800
-1051.090700 -1597.372100 3695.938700
-474.440670 198.655870 1748.334500
39.409775 309.853700 1040.568600
-1439.252700 -1331.150400 3653.605500
771.117860 155.150880 1860.572000
-1134.624300 -500.491300 2397.281200
-1032.726400 201.074900 1806.151500
-1578.566200 -251.446820 2361.419200
-980.247560 -1999.755600 3633.363000
-1507.637600 -1678.645600 3625.943000
-428.515960 316.960500 972.385400
184.306870 -187.536730 737.871030
884.502750 -470.012540 2900.734400
-1151.377200 -248.761490 2435.536000
-1248.376100 -46.559950 2002.993000
-1635.028600 -582.407700 3420.045200
203.843830 -1238.477500 3595.528600
-1036.511700 131.998400 2244.595500
-677.543000 -1385.000500 3701.448000
-1448.765500 -686.439300 2398.602000
873.269650 116.670270 2080.664000
-1033.464800 -1866.050900 3654.508800
879.332100 -422.073940 1397.688000
160.212750 -1519.685700 3500.273400
600.080930 -850.249000 1510.870400
126.999460 -466.156400 1557.494300
323.304530 -14.924880 1000.180100
-435.645630 168.367550 1889.972400
-1349.124000 -1699.868400 3637.620400
481.497300 -50.626324 948.606100
-1420.236700 -700.170900 2046.273800
216.928900 228.163000 1101.028800
-1372.838900 -1214.237900 2242.622800
602.909600 -230.995220 1613.023800
-1379.270900 -1132.307900 2110.232400
-1239.197800 -1964.769700 3652.306400
-325.988430 -1006.185060 3709.828600
214.175480 213.182800 1327.324100
-135.085430 341.087200 830.922000
561.732800 189.638240 1459.374800
-1075.173700 -1301.781500 3751.401900
-343.769500 -1169.804400 3686.881800
-1343.582200 -1365.282800 3667.447500
-1157.163800 -1363.338700 3750.415000
-1523.212900 -593.852840 3381.453000
-891.387760 156.290360 1392.772600
-1086.576000 -66.371870 2123.501500
-1161.822300 -529.350600 2156.129200
-1378.155200 -613.382600 3389.828100
-942.746400 119.610214 2364.098000
-1664.676100 -561.055300 3345.671600
-352.993470 -1257.273000 3679.720500
676.311950 31.047232 1733.927500
-1188.201400 -693.497400 3720.914800
101.305070 -339.232300 1432.216700
-1675.663000 -513.980800 3055.451000
408.677920 -319.422300 887.833400
-1322.827100 -1283.503800 2380.476800
-1190.960100 -437.694270 1919.250200
-1167.693100 -338.120540 2559.647700
917.228300 -266.488830 1549.052200
-1285.293600 -609.686300 2297.923300
-1192.060800 -548.428830 2816.468000
-1438.333000 -201.218380 2037.550500
132.291120 -330.399080 930.928830
-179.904500 -1407.251600 3628.423000
923.901900 145.584120 1934.717700
-37.034332 -74.213860 1642.742200
941.810670 147.941220 1710.416300
189.670820 71.797840 1929.743300
-1557.841600 -1268.485700 3672.290000
69.145390 -251.586700 1339.304300
-1199.907500 -1402.905800 2488.563700
-733.760000 161.531560 2002.836900
-1162.891800 173.674000 2005.211200
-1354.634200 -1101.858500 2318.255000
-1341.855700 -479.060600 2482.385700
790.512100 83.815216 1488.351000
798.685500 38.211815 1633.500100
8.072457 -226.090410 1633.059100
-1005.879300 176.742940 1986.360000
-20.449926 330.410100 908.669500
794.902500 -487.404570 1519.578000
322.103730 299.408840 997.408800
-356.831240 26.017830 1708.191000
390.547760 -64.995420 863.134500
199.504030 167.323550 1873.649500
65.630910 -1634.496100 3541.590600
-899.277950 -1877.711400 3641.584700
-1495.428500 -802.995540 3216.706500
-14.585192 20.768196 1657.630200
320.561770 -299.526640 598.386170
-183.519360 252.878390 1548.536400
130.187030 225.670260 1253.975600
112.751470 24.234192 1027.928100
-823.413640 266.122620 1365.566900
-1347.143100 -1836.794300 3620.733400
-1099.063800 -687.069640 2917.343500
-1771.061900 -317.051850 2925.341000
557.073600 212.394290 940.343200
-632.709200 -154.245040 1640.120100
-786.110200 -705.685000 3780.056000
12.940042 -534.677060 980.207340
230.317500 180.875260 1756.191500
-1039.930200 -692.664550 3559.103000
556.956000 -406.338680 2461.674000
944.002560 94.222280 2220.877400
-1371.694700 -1074.954700 2190.223000
-1103.517800 128.757200 1561.828000
-856.238650 -765.684270 3772.971700
-1252.308500 -120.964294 1952.740500
-406.160220 -1689.199500 3616.241000
707.639040 -432.243960 1465.918500
-919.214500 -1515.494300 3697.540000
-1424.132900 -1563.935500 3603.021500
-1316.794100 -271.072940 2389.150100
-985.534550 -803.167200 3758.316000
644.098630 -753.127900 1480.771700
563.782100 -386.101260 1311.740600
742.934500 -831.412540 1458.159500
-954.228700 188.266000 1883.762100
-1117.180000 -110.455230 2464.177500
-1343.883500 -1234.668300 3699.871000
-74.478386 218.531540 1674.311500
198.341320 233.815170 1481.354700
-1109.623000 -577.477230 2967.370400
-1555.363200 -1566.955700 3650.617400
344.882020 -3.293802 832.891050
63.496895 -498.673370 1114.454600
-150.567520 371.577900 687.073700
-209.418620 170.487800 1852.333500
-211.173930 -1248.849200 3654.540300
192.592040 -278.165700 730.855600
-1220.270900 78.068985 2273.376500
-1145.190100 -15.504423 2327.431600
-1104.155500 -663.275800 3457.216300
-1215.077500 -233.185000 2215.623300
273.212100 174.637790 1368.155900
290.955000 -292.245480 821.544430
-270.719940 190.456310 1756.558200
-733.076230 311.242030 1022.286700
-512.532900 -749.415340 3737.626000
-360.101930 -1416.178300 3651.681200
-649.826700 233.145650 1593.944500
-1286.582900 -1057.654700 2438.900000
-1259.658700 -861.807000 3578.913300
-222.643220 237.412890 1617.063100
-81.018210 -1278.223600 3625.218000
-273.434570 389.122560 625.570900
-1405.252000 -568.307250 3138.003700
-700.752260 251.519870 1469.399700
1169.175400 97.854730 2303.143000
978.833100 108.202540 2137.133000
-706.900200 -1061.240100 3802.414600
644.166930 -406.382320 1365.634000
832.214050 -367.204650 1545.730700
-1302.376200 -497.781100 2585.366000
182.217940 -1321.734100 3557.129000
-1272.379200 -1315.016000 2482.521200
-977.008000 -1184.097000 3767.726600
-49.842716 -326.654300 1622.695100
-1158.679200 -1854.104700 3666.675500
-1068.333900 -259.260300 2540.639200
1076.933800 108.683660 2144.297400
-351.829100 180.556120 1803.425500
-1328.790500 -732.880700 2692.786900
-383.356930 396.375670 615.006160
751.935240 -1027.450300 2762.864300
-1174.541500 151.382190 2164.607000
-1426.587900 -811.526200 3048.638000
-1269.435900 -1401.870600 3686.187300
-68.190155 278.857600 1293.812600
110.498820 336.640200 898.862200
339.924530 95.488365 2394.019000
119.940620 15.919383 1628.107800
-1592.154700 -514.543760 2964.018300
-221.139270 344.361480 810.537000
-161.059950 -34.028430 1665.249000
227.132430 47.984985 940.600100
-1770.850700 -343.786680 3103.285600
-1279.019900 -755.714050 2446.325400
-1162.999500 -896.981140 3642.759500
-1150.356800 123.029320 1665.774400
-1198.528200 -461.550630 2263.459500
-812.748700 159.771330 2051.011000
-1079.284500 3.170354 2075.159000
-676.674900 -1789.357000 3633.763000
-1760.027700 -1455.081800 3720.102800
-1572.837900 -1341.469400 3705.269000
541.036400 205.764140 1077.457300
-544.446040 116.331215 1806.880500
-1575.564100 -1756.285500 3608.596000
776.281300 -323.738340 1566.879600
-1519.491800 -312.780880 2334.872800
-735.787660 271.167450 1321.659200
391.835270 17.031567 642.303600
189.035020 -451.035680 805.484200
-1727.705900 -399.840970 3011.118700
-1684.530200 -1737.036300 3694.351600
-165.024250 -1063.334500 3733.171900
-1342.761400 -1006.794250 2321.625000
-1056.161300 -1750.367100 3670.796600
