ply
format ascii 1.0
element vertex 1344
property float x
property float y
property float z
end_header
-1426.612500 -1764.900900 3489.127400
-333.830870 501.743800 1791.105200
-687.215800 -1500.536600 3869.770000
747.082800 -886.148100 2745.909000
977.967350 -123.552780 2331.160400
1054.631200 458.701870 1860.327500
-1081.369000 -1076.404500 2062.494600
-810.262200 325.405150 1937.142000
-314.983900 -390.296630 3809.019500
1095.495400 -24.338260 2595.423300
128.581860 -215.268540 3665.026400
1570.582000 -179.724560 3393.488000
150.151030 -754.822270 3710.786000
-900.412700 -1520.907800 3661.682100
-1277.154000 -1017.796260 2341.645300
-910.138550 -1880.902000 3730.032700
-987.093440 -225.354020 1586.652000
-1084.339200 -1553.275900 3155.055400
-191.372060 501.696080 1548.335700
336.942540 -1857.575800 3652.485000
-639.409500 350.443240 1900.847400
-603.824100 -132.542920 3605.584700
196.836270 505.641050 1244.389000
790.145140 -543.529400 2790.596000
-947.129400 -783.609440 2142.348400
491.568240 -248.717970 1073.967300
-811.561040 -1097.364600 2305.580300
-611.694030 -382.796140 3842.808800
801.999630 459.123630 1615.585900
-1314.065600 190.511470 2733.238500
486.114840 -1099.551000 3653.543000
-414.529940 5.012983 3275.260000
-1347.966100 -482.704600 3659.814700
778.803400 -1143.749000 2308.337600
-1314.408800 -842.146060 2112.586700
-1055.828700 -3.687509 3067.944300
-1232.754400 -1624.529400 3658.425300
-754.324200 46.955143 3768.706300
-800.574100 143.394070 1979.123700
-1052.029900 -283.107700 3106.565400
609.201970 467.572660 971.576700
-626.663300 376.124800 3089.790300
1079.234500 -1792.804700 3210.463900
428.409670 472.136720 1495.548000
-916.332030 103.759060 3600.109100
38.451610 -1450.674300 3714.505400
-1111.855000 -686.156860 2123.920200
-652.294800 520.436770 2039.344400
-798.564300 -48.406578 2753.548800
-101.440605 496.421800 1115.407300
-515.180900 -1511.649800 3844.471200
1146.589200 -605.963300 2662.666000
-660.194900 241.391270 2485.925800
-955.616640 -627.911740 1896.529200
-1344.564600 -1213.418500 2080.909400
-821.770750 -209.344740 2295.476600
-576.179700 -1635.398600 3696.141800
-532.268550 98.861450 3126.170700
-181.215400 -1773.701800 3866.874800
-842.740000 -69.426090 1760.088400
703.168300 -1022.868160 2409.624000
-497.313570 521.172670 2630.266000
75.154640 -1949.510300 3523.318000
-1146.306400 -14.110091 2112.906500
-322.541600 -1812.709800 3792.098600
-1196.558000 -1361.637500 3745.066400
75.735330 368.092320 1552.478800
-884.016000 -1070.508000 3763.979000
475.270140 -338.956900 939.537000
-958.750800 -917.428000 1890.085000
-968.827800 -54.707950 1597.739000
820.836100 -1849.625100 3492.038600
-1094.814200 114.744110 1690.088900
-1140.659900 111.707970 2331.205000
-926.506960 -367.990000 1346.363600
651.061340 366.364470 1122.674300
-1053.525100 -3.996113 3323.754200
-656.260130 -897.108150 3805.932000
823.716430 -1094.825000 3607.740500
478.323270 318.814600 1485.299600
-283.323580 -1503.731800 3824.161600
639.990100 -201.774500 3610.387000
482.979370 -187.587360 1360.303600
542.886540 -92.741264 1041.407500
824.691040 -732.192800 3607.654300
-590.795650 322.042760 2835.823000
421.564270 -417.718500 3684.950000
-475.938320 417.562900 1275.748900
-655.031100 126.105990 3672.371300
-884.212200 -371.538600 1751.763900
-886.007500 -1903.053300 3422.926300
-1026.722500 -521.170000 2206.438700
-622.617900 -1172.630500 3795.020300
-258.703500 205.942780 1649.168700
1146.849200 -428.257230 2473.893800
-841.652950 -575.245540 1770.154000
-716.869700 28.354626 2278.440200
-507.531740 -1303.623300 3786.182900
-116.107796 509.365720 1405.669900
-159.069960 -1604.915400 3842.241500
121.786800 -1685.951900 3788.589400
-1267.916900 35.184700 2832.278600
-605.496500 -534.889500 3805.955600
931.807500 -888.026730 3644.963400
-1112.646600 -1052.858200 3775.272500
-609.182860 161.493740 3363.436500
-1059.079700 -1489.157100 3488.140900
-197.391850 -713.526400 3759.537400
-780.057000 -74.958270 1902.392100
-1167.784500 -982.599850 2236.763700
396.039760 484.826720 1049.513400
92.231280 496.664000 1130.055900
-771.772700 403.762120 1475.056500
-811.799600 -1374.138900 3811.313700
560.362400 -1841.184200 3678.516800
-868.505000 -375.678650 3776.844500
-418.812900 -1874.762000 3384.841300
-91.952080 375.235660 1582.853600
-861.364700 -75.322990 1405.718400
-351.910340 -1269.496200 3775.578900
169.764450 483.642850 937.676400
-1182.416700 -758.544000 2270.395500
-392.676240 169.827910 3171.424300
-456.172900 397.080350 2816.822300
1117.447300 -1562.914100 3081.487300
795.233030 475.120900 2011.564000
-717.172200 -1759.814800 3856.698000
-718.502440 -337.282260 3691.652300
-911.922500 -215.392120 2167.409200
-537.848750 403.559270 865.662000
-945.627000 -804.077900 3762.021500
-959.959700 -1714.734400 3395.290800
-321.034940 -1104.927400 3772.375200
783.651000 -457.464020 3687.572000
-993.013600 -28.959213 2392.154000
-1026.674800 475.894870 1787.004300
-93.829270 -1329.630100 3742.542200
996.160030 364.848140 2284.302500
1019.861900 -1950.384400 3502.832000
-695.565060 287.001500 2211.532500
858.509030 -915.168200 2420.353300
908.301150 -1189.397100 2592.539600
398.423000 -1335.108600 3674.341000
1022.564100 -1481.240000 3611.842800
-1077.389600 -481.783000 2031.849200
-975.511050 302.726960 3753.900400
-1240.124100 37.621094 3029.507300
-12.345927 -1577.796500 3777.179400
-794.032800 443.910000 1643.429000
-205.751700 483.115540 831.767800
1012.158300 -482.131500 2510.901000
-1508.855300 -1708.596400 3600.813200
-608.914370 189.602870 3216.625700
267.454440 473.247650 1721.959500
-817.183650 -931.220030 3737.519000
-237.896640 -1367.589400 3763.522700
-908.675660 -328.859830 1896.787200
-409.651280 506.797820 1942.372200
-678.805360 -1886.699600 3585.908400
-1146.287600 4.022841 2640.725800
-1425.894000 -747.656430 2141.932400
-1154.418100 -419.610350 3807.516400
-168.071700 -388.233580 3787.574000
-22.496126 -648.368160 3737.310000
-1388.396100 -955.181460 3714.154000
-977.029500 -1005.423340 2491.022000
-1284.190000 -890.949200 2252.146000
-633.641850 -1742.946300 3559.951700
-124.830370 -924.893900 3746.331500
-910.748900 -1662.552400 3875.411400
196.035840 115.376990 1525.047400
-928.205570 -438.156130 2018.812400
-1000.670600 -965.053960 2211.483400
783.220030 -1871.970300 3633.716300
-931.496200 -59.109344 1891.457600
-871.939330 -23.583733 3538.657200
1009.256800 451.563900 1530.937500
-1018.714200 -415.126460 1831.894000
822.684400 -610.113160 2651.187500
-766.493160 -1883.618200 3781.471400
12.789849 481.912570 1669.191300
-430.543120 -1603.585400 3494.236300
1041.495100 249.610610 2374.208000
18.332256 -910.427400 3728.481200
1127.760300 -1766.077000 3552.000700
-572.614870 508.939330 1701.303700
-896.326050 -518.202200 3765.904500
-1495.868900 -1729.163300 3348.735400
-343.144500 491.120000 1027.308000
-1006.640100 423.415440 1407.386200
-636.264950 366.485100 2553.954600
920.859700 -368.996830 2581.603000
-581.764300 -1028.826700 3795.706300
1217.005600 142.629490 2675.351300
250.026890 -649.326800 3685.873500
165.318200 -1853.330000 3605.471000
-342.085480 508.643460 2078.941200
-1235.010500 -910.899960 3740.944800
395.665200 -193.165370 3629.527600
310.783900 -1497.020000 3704.352500
841.632800 -1142.818000 2064.552200
-905.821000 -866.482060 2471.273000
1032.173600 226.403550 2632.528300
-1269.839500 -1516.865700 3744.380100
288.824100 -1759.434600 3812.573200
-984.657500 -1657.468400 2968.349600
474.225770 130.315110 883.785770
-1055.356300 -796.956400 2040.666100
467.313420 -792.817260 3656.036400
384.510000 -1954.740000 3530.376700
-603.892330 -1763.664900 3334.160200
-1025.557600 299.581570 1800.669800
-653.848100 516.626650 1882.628800
693.061460 -839.942200 2496.369400
-502.960200 518.671140 2481.376200
58.037262 478.453600 848.636840
1488.244900 -66.755480 3293.594000
-170.172240 6.595936 1540.239600
-700.029100 -639.692300 3814.215600
-1242.817600 3.003322 1947.687900
-1047.005500 437.374820 1572.580100
-647.329200 512.360400 2391.037400
-1053.456400 -430.283480 1677.821700
-974.156700 186.333400 3492.294700
-269.736720 -1927.192700 3630.165500
-1104.043000 -550.087460 3777.458500
991.002200 -702.709500 2490.158200
-1009.960500 -37.538376 2135.857700
-1294.791400 163.087600 3061.200700
-1083.359700 98.406685 2176.530300
801.821170 430.853970 1329.602300
212.692900 341.292900 1528.336000
-1302.021900 -1691.532600 3534.206300
1077.833500 100.665800 2536.963000
-186.265820 -1078.542800 3750.997600
-1130.563600 42.567295 1804.567000
-30.838072 117.973500 1557.835000
604.436650 -590.608000 3638.189500
-492.674320 339.934050 2991.190000
-555.520100 383.411830 1002.181100
1130.432900 -345.653140 2731.468500
-1189.982900 -1178.226000 2257.474000
753.615100 460.337130 1009.782350
-872.755070 298.835900 3582.738000
800.354100 -1738.589700 3674.174000
436.049200 177.749420 1491.926500
-1453.958900 -1153.195400 2137.182900
-795.898250 88.991554 2405.716000
-1390.450600 -1614.981200 3700.739700
-791.470640 -183.311280 1701.401600
1082.082200 -236.691210 2597.176000
1092.338600 453.181900 1726.063600
-760.021300 -1187.578600 3810.896500
-908.080800 -28.599064 3046.602300
327.906600 407.780640 1561.161100
341.002840 -405.380920 994.272460
-908.482700 -317.310360 2262.357700
-63.230190 -1197.067900 3740.078000
-405.285580 -1575.226300 3795.703900
-394.096700 -1777.780900 3593.195000
-937.562100 -1035.415900 2351.450200
-63.681670 -1842.089200 3767.215000
-375.829900 -4.575955 3789.522200
-316.319580 466.249480 2350.219700
-279.013500 494.658720 1667.737700
563.795530 -132.889470 1454.326400
-88.667610 482.270780 915.831600
-739.682700 -58.759846 2549.900100
571.876300 -1967.837500 3550.828400
-918.531860 -193.763090 1295.933700
-439.961800 513.967500 2200.026900
489.066560 506.709870 793.579960
-913.508800 -1589.496800 3334.100600
1129.480500 -886.462400 1475.815300
318.703580 491.982450 792.221500
1202.008900 -962.722960 2978.177700
-705.023000 -92.338930 2342.142800
554.774500 -14.501904 1193.126000
-1145.322100 105.015460 1955.925800
-442.545040 416.690280 1078.140300
-1322.376600 29.221510 2340.553700
872.290340 455.270660 1501.570100
-892.320430 -445.278870 1450.317500
-608.200400 329.929230 3214.133500
-1008.755700 -11.512109 2930.777300
-777.331100 365.166660 1283.138500
474.796230 1.252459 811.565700
-637.969600 483.880070 902.489750
-1071.742800 244.321610 1613.154400
-1113.798200 -495.436220 1900.901200
1037.782600 -1840.779400 3687.093500
84.516030 49.312880 1552.259600
-363.789460 -613.987550 3778.670000
-205.377400 491.041080 1822.538500
-706.286740 413.978640 2246.579800
700.159200 -1558.378700 3680.983200
-475.408780 522.035900 843.591500
-720.485900 387.266720 2012.047200
-128.358830 484.766800 1663.759300
-655.307740 381.578980 1228.698200
-1127.022800 4.248805 2789.641400
-960.973500 -1407.492800 3627.494900
-232.539470 492.763980 1113.260100
-1101.643600 14.646277 3446.416500
-566.344670 -1419.621300 3766.672400
602.615800 -1163.382900 3637.043000
-375.769070 498.229280 1304.871500
-394.099580 -994.421260 3780.485800
-1233.429900 -712.183650 3766.594500
1219.006600 -1621.937000 3138.782200
-820.476000 -166.480910 1500.973400
-829.238700 136.710450 3691.580600
475.359700 -1679.522100 3727.162000
631.856100 -865.522900 3629.795400
-1334.617900 31.640238 2540.683800
-420.728000 -1706.043600 3334.412400
821.335800 466.155670 1745.225100
-981.382600 -1156.643200 3745.180200
-404.861570 499.926500 1493.089100
-754.210600 -1917.261500 3472.024200
1453.105000 -191.775920 3445.464000
-533.629640 -178.199620 3734.531000
1286.731000 460.862700 2068.786900
-698.711360 -1611.322500 3934.096200
793.704160 -1486.814500 3604.298800
378.105680 -85.073720 1519.701700
59.671860 -1804.007900 3774.544700
-778.158400 -47.978180 3228.514400
785.760200 -1024.660400 2260.390900
-891.961300 -1089.407800 2562.566200
-926.228150 -230.702160 2457.278800
179.808750 -1256.377700 3705.988300
-1109.637100 -2.942720 2447.554200
-1123.876200 115.386170 2556.552000
1268.633500 441.428250 2314.731400
-1121.567700 -300.042760 3394.216600
-1038.682400 -3.840657 3194.631000
942.501700 -1581.113900 3683.971200
-667.108900 -762.722050 3806.294400
296.834140 484.441470 962.318360
-201.517410 284.752080 1493.859300
-1207.117800 -593.527040 2122.875200
1080.391800 -1278.391800 3713.015000
-120.943990 -1926.542000 3629.717000
766.613460 -1363.413600 3617.069600
-522.889400 503.079470 1539.741500
-228.075590 -836.247740 3759.925500
-1418.657000 -921.096100 2120.162400
-1357.688000 -1116.718800 3711.921100
-654.220700 -170.225720 2776.200700
1244.253400 469.039600 1904.628400
-665.145750 363.969670 1081.899300
1105.205900 -1676.438200 3164.350600
669.973000 -1836.550300 3509.109900
-968.446530 -1567.309400 3208.364500
-817.150800 477.365500 1807.553500
544.505900 -1404.634600 3647.631000
556.328740 -213.295680 791.952800
562.476000 65.189270 1440.636400
651.226700 436.510100 1363.097200
-822.896670 -310.802370 3620.492400
426.760900 -405.165300 720.812260
-948.989870 -787.954040 2278.690400
-373.538540 -870.855830 3778.320300
79.201660 -1029.482700 3720.263000
-478.402950 -780.774000 3790.789000
989.836100 471.593800 2198.769300
-194.940720 -146.542800 3704.323000
-787.416100 27.427654 1528.123000
-632.251040 414.904700 1478.324200
1031.887300 470.342650 1981.968500
-867.808600 -1344.202100 3416.003000
-969.645100 -341.324000 1641.005500
-306.868770 490.823500 905.461300
736.987550 460.669300 1863.415600
270.104900 -880.802860 3690.062000
-1165.926900 -324.199300 3558.119100
651.595340 -1320.709700 3635.224400
1068.073400 -1725.934600 3729.321500
-1187.924300 -2.811953 2335.230200
-829.635300 -915.503600 2386.721400
-988.389950 337.439150 1616.104100
414.492600 496.397950 1318.665800
-717.989870 274.762150 3402.519000
-557.399800 516.247500 1959.530600
893.549440 -1948.207000 3504.933800
900.145400 -638.491400 3634.070300
801.430970 -812.862400 2652.860600
580.456360 -1740.850200 3748.086700
783.437260 368.859440 1086.305400
860.759950 -1278.108300 3598.746000
-876.949460 -1772.356600 3474.388200
851.998600 -975.552500 3601.777000
543.964400 -67.262790 886.032400
8.082206 -206.398390 3685.553500
583.416400 406.818400 1226.996300
632.981600 -331.600860 3627.779300
-1074.764000 59.013150 2044.254300
-882.430970 -249.659680 2583.641000
557.824160 201.886780 821.681400
-13.694590 284.690060 1559.380700
893.104300 -488.177580 2542.804700
-1047.429600 95.736940 2412.208500
-887.369140 -368.221740 1545.324200
-787.710200 -185.833740 2166.911000
675.863400 460.830300 1627.477500
500.023650 416.618960 955.458200
-814.673500 157.420820 2258.242400
-1155.834800 -1536.393000 2855.641600
378.921260 -655.651550 3666.363300
-1198.692500 -1139.177100 3754.516600
674.531070 -893.002000 2249.188700
-1275.505200 122.931500 2179.184300
-1099.568500 -1460.254500 3762.396700
-1026.229200 -977.427900 1975.090800
-600.866200 -1687.889500 3427.817400
439.072170 382.491330 831.204400
-1024.747900 -678.989200 1999.148100
-632.306150 251.755720 3116.321300
661.891000 -1876.074100 3624.570300
-771.179400 234.695370 2121.395500
849.708440 484.207860 2150.128200
866.512450 -829.443660 2504.214000
-986.498000 -311.993840 3757.018600
-686.321530 -45.331974 3733.640000
591.286740 -83.417404 3612.924300
-1176.964100 -1594.713500 3375.080000
-938.545530 155.622000 1863.184800
129.525400 -1369.812300 3713.932000
-1126.072000 -932.126700 3785.458300
-966.163800 -1062.332800 2151.304000
-497.324400 -1568.807600 3635.979000
1103.347500 -1721.344000 3382.665300
-996.232200 -1274.746500 3762.703600
-743.831700 -50.298695 2859.514000
-911.551100 -36.937954 2489.985400
-0.752614 509.851040 1375.669700
1033.084100 -636.122860 2579.587000
221.581620 -410.832760 3711.403600
968.772200 -1849.386800 3466.984400
-359.901370 -1690.635700 3752.388700
-917.729500 -40.409756 2301.105500
-1231.119100 -461.329620 3727.241200
-893.343400 400.469880 1433.409200
-416.343780 -1872.933000 3526.187500
-1387.222900 -1248.440200 3679.245400
-889.929260 -1180.619500 2336.136500
569.357100 -1517.210700 3679.509500
48.774757 -1162.254500 3725.840800
-1030.096600 -1541.312700 3043.128200
522.735800 453.092530 1666.888200
-1119.936300 -681.040340 3763.057100
-651.003850 -165.422560 2583.202100
-827.223140 295.915100 1788.581700
532.710700 -9.037853 1354.397300
-584.534000 516.346070 2137.235400
-738.582300 -79.248690 2160.670200
-931.540400 -1768.566400 3825.843500
-943.303160 -1556.102700 2925.344500
1016.929400 352.355530 2166.925000
-957.462300 -1711.353400 3068.913600
-981.865100 15.117678 3554.226800
-760.279200 277.508000 3557.383800
1061.836300 468.374760 2097.778800
269.624600 -1090.395900 3688.201200
696.992500 -1695.381800 3715.103000
-670.758670 360.924260 2114.581500
995.385600 -1350.134300 3660.317600
494.724850 486.858460 1234.703000
1133.688500 -1927.973400 3492.400400
-460.428250 504.489260 1734.275300
586.912540 465.756770 1459.989900
-501.858980 -410.439000 3805.364000
-998.474900 -492.790100 1944.195700
959.033800 460.358980 1790.910800
111.835110 426.182300 1646.946400
-389.576260 -228.737460 3723.581300
512.701100 -172.532840 3615.423000
-903.390000 465.425080 1718.831500
-468.409120 -14.601977 3702.098100
-631.160160 -1725.901500 3782.956800
-135.607270 -610.325100 3754.237800
708.939100 -695.145940 3617.083700
388.414430 -884.877700 3666.391600
-301.570300 -1820.833300 3660.536900
474.595550 100.939445 1007.140200
-1095.575200 -569.722100 2109.390900
-995.417600 -1786.184800 3220.904500
-1369.284700 175.785350 2620.409000
449.245500 -1868.586400 3673.177700
-610.624500 353.508940 2970.409200
401.698430 -253.398800 957.666200
-1111.997600 -1353.677700 3668.603000
216.168850 227.559950 1521.209500
-920.977400 -892.073000 2175.256300
-307.660300 -136.855410 3717.891400
-811.834700 -187.707140 1941.249400
-892.671900 -72.645660 1515.106900
-1363.313500 138.542420 2462.567400
-12.330590 -394.788400 3750.882000
233.692920 -1664.072900 3762.366000
-1234.356600 -778.217830 2171.273200
-901.133500 43.056538 2407.650400
-1340.502000 -1111.078600 2129.954600
1146.978100 -1807.592900 3678.682000
-787.197700 -1541.743300 3948.230000
-305.405550 501.233830 1547.566700
702.289200 -864.405500 2633.699200
98.837296 496.240450 1518.166400
-1006.103900 -1138.418300 2381.299000
-1065.855500 -1529.634600 2787.236800
-157.255720 115.312340 1581.159000
-496.760830 491.685900 2745.519800
-978.535030 -24.528574 2615.188500
715.497440 -1071.122100 2174.666300
-1322.269500 -654.089660 3728.177500
506.743770 -682.349730 3650.664800
-1000.248900 -1905.671600 3422.128000
-840.414700 -277.413700 1496.111800
246.966570 -1925.311300 3646.087400
-1374.221200 -713.817260 2247.517800
48.830380 -482.356750 3714.893300
-993.036600 -675.284700 2155.175500
-833.251160 -1764.415400 4011.554400
-762.875800 -1895.565800 3660.199500
-1338.821900 34.662760 1898.263400
1184.561800 458.618700 2125.684600
-1067.945600 -44.720745 1539.721000
-829.001160 28.358753 2280.685300
465.473480 -154.418470 1508.268700
217.525630 502.098570 1451.672700
272.252660 -10.094365 1507.287600
-1249.930500 3.185867 2074.039000
652.005200 388.102780 896.324340
1193.505900 378.903350 2248.496000
1090.556600 -517.108700 2582.521700
-604.241000 331.402470 2722.467000
-714.018900 -1427.691500 3788.161000
-332.518040 -499.963750 3773.204600
-61.630318 -1832.425900 3643.992000
38.728413 -748.084000 3727.213900
-387.277440 518.179570 2613.451700
-214.360370 -1924.739700 3532.044200
950.830930 -648.152600 2389.257800
398.052900 -314.282320 3652.613500
-421.697240 463.926240 2897.979000
995.910500 -271.122560 2522.195000
-456.965000 490.707120 1194.322900
-725.199000 169.646350 2431.704300
983.437600 -1162.034800 3729.753400
-877.865100 -198.158950 1589.622300
-1462.648400 -1843.357000 3420.605700
-1301.127300 -1074.907800 2249.287600
-708.993100 272.245100 1935.232200
-622.260200 199.636690 2391.447000
-1185.715100 118.097430 2465.595700
-1019.724550 -1465.328200 3388.289800
-1219.903200 126.026886 2793.175800
-898.089360 -14.339741 3645.038800
1119.581000 75.836300 2635.570600
447.044070 -1211.166000 3661.367000
-925.347660 249.783460 1805.722700
-591.768860 -294.080960 3781.397000
-615.871340 509.763700 2647.360600
554.821300 476.063050 875.472700
-931.586200 -609.795700 2367.386000
-1072.794900 -901.767940 2066.399700
-1348.321400 26.922413 2143.741700
-526.645000 -1586.960800 3436.504400
423.874820 -1575.407600 3722.494900
-105.433080 -35.548958 3770.435800
-711.998660 -194.304900 3657.015100
-886.184000 -1355.385300 3730.739700
888.311950 -1274.374600 2527.079600
-502.136720 -1565.180200 3746.576000
-1036.317700 -38.116130 1870.128900
447.772500 -365.027370 835.588800
417.842300 -283.404360 1471.589100
-787.421600 -51.466938 3462.766600
1135.391600 -799.610300 2834.558600
-834.284700 -425.702580 1347.899700
-857.261350 -298.728420 2359.267800
-1209.369400 38.794870 2559.284000
-823.409500 -282.436000 1738.472900
-1155.747000 -1558.157500 3578.026600
-768.716430 503.449400 2037.731200
298.933100 -1827.951500 3555.240700
1125.219600 243.570820 2442.961000
1017.803340 -1276.745100 2729.742000
881.488300 -1810.603100 3672.791500
-960.832700 -1408.598300 3481.594500
-1029.557400 449.184000 1678.922000
-792.248000 250.170550 2013.021200
168.433470 -114.643330 3657.416000
481.796480 -75.540710 1129.220600
-863.594600 -732.337700 3759.892300
734.339300 -964.891050 2183.299000
506.943360 -473.168150 3648.407700
1532.436500 -77.975395 3391.645300
97.965100 509.140600 1288.008200
-1188.618200 -16.536512 1730.362400
-1158.497000 -1545.598300 3716.578400
238.186780 -214.462620 3652.069600
-887.055000 136.349320 1685.263200
1102.581300 -1846.750400 3307.953900
367.381000 -54.289165 3643.742000
981.356100 -82.560690 2434.558300
-421.613220 401.033420 964.944400
-577.072100 419.642520 1312.739900
-917.344400 -21.898497 3287.741700
752.387000 391.506740 1192.269700
-1244.383200 -1675.473900 3399.594000
-859.640500 371.303560 1211.088900
-1066.093300 200.189500 1748.772500
901.693200 429.446400 1281.408100
-478.543270 -615.362900 3788.635300
-874.735000 -1030.322000 2454.648400
-973.299500 -485.473500 2104.039000
564.022640 -1026.613400 3641.483200
144.265800 -1780.837400 3836.503000
-1016.000550 -35.507760 2018.153300
532.386400 -267.786070 1171.102500
-195.245440 289.439030 1611.124000
-814.878400 -24.788557 3717.429200
-1016.045700 -864.106400 1967.286000
-1441.387100 -799.186900 3694.641600
-939.481900 -803.801150 2383.994100
-1246.501500 126.302185 2638.006300
-906.756350 -33.483620 2764.660000
495.030850 -371.247830 646.243700
-1261.009500 40.693012 3277.177700
1018.396300 129.441420 2427.888400
-724.661870 184.134960 2208.127400
-616.570200 -84.437515 2958.003000
444.941650 71.769530 1493.938800
-691.111100 288.181120 2317.791500
927.609300 475.138400 1961.660200
-838.310200 -171.346220 1366.335200
-1046.421300 -853.888550 3757.472700
-1100.823400 -1318.234100 3769.004200
-990.450130 -1115.583000 2018.580700
1099.354400 319.412870 2224.760300
-572.169070 -833.352600 3796.852500
-566.015600 475.745850 2829.852800
-892.967830 -1814.733400 3577.848000
951.484200 -505.516140 2425.806200
-904.691900 203.832800 3632.327600
-186.047260 -300.794920 3730.885500
1259.234100 -873.517400 2979.209000
198.984040 -1460.850800 3689.252700
922.144600 -1136.576700 3647.773200
-814.558800 221.819090 1910.061400
511.535430 -283.227970 857.730500
-21.435390 -1942.181500 3564.836400
323.889470 485.000580 1484.736000
578.717350 350.603760 1482.212900
-776.072800 -53.839960 2650.882300
-965.835270 -1177.666400 2166.321500
491.344450 1.597884 1043.226200
-751.544400 -951.315250 3817.334700
-529.498800 -1711.371300 3271.244000
-916.587800 -347.014370 2069.568600
-1264.415600 122.242300 2283.338000
378.408450 -1084.997000 3670.557000
889.904300 -731.791700 2474.834200
-1054.173000 -43.399130 1666.213400
-712.751830 -1715.719800 3951.142600
-1268.278900 -1184.314500 2330.764000
-991.025100 -560.533700 3776.545400
-928.803960 -325.801400 1459.695800
-688.055850 506.348240 2170.075400
-1052.316400 163.957030 2101.831500
-1187.126700 -872.787000 2285.100300
-694.859200 -56.048355 2757.328900
-921.307740 -1470.418200 3790.848400
296.732360 502.071400 1278.627000
456.409580 416.320600 1578.594400
700.563600 -1120.044700 2373.239500
129.793670 491.587950 1033.127600
-1289.040400 -1695.831900 3187.842300
80.011250 -1532.117400 3765.944600
-926.623100 -1572.344700 3811.222000
-166.172900 -486.368130 3746.311300
118.272070 -1917.790000 3671.411100
715.044100 -392.574700 3643.843800
1091.051800 -461.816600 2671.105500
-568.093140 -85.279160 3693.014000
-928.506800 -66.939766 1691.954700
99.595200 -847.535100 3719.145000
1049.874100 445.931850 1436.380900
-771.828860 -565.990540 3808.922600
-716.736600 519.979700 1643.208400
-933.308600 -72.192180 1332.131500
635.392330 464.976200 1147.729600
-986.712100 -1050.159400 3765.064700
-696.800100 213.877900 3629.783700
-93.484566 508.392760 1304.228100
28.427734 -308.893400 3704.890400
-662.950100 435.604430 2472.870000
-951.441350 -839.220200 2054.465000
1052.886400 -1406.713000 3548.241000
28.251965 -95.208100 3680.237000
-1117.544000 -315.807300 3685.067400
244.695100 481.820950 867.883800
-858.146200 -174.250060 1210.431000
-209.727510 505.607500 1364.494500
1239.542200 -1718.236200 3110.881300
209.331480 506.688780 1347.452100
-940.513900 -244.287260 3818.386500
-990.233460 -1560.418000 3411.723000
67.413180 -1837.416000 3633.822300
169.567960 -307.085500 3683.697800
1158.978000 -278.650020 2659.680700
-773.685500 -125.945750 1813.905400
667.618200 461.648680 1524.748300
-823.423400 388.449620 1857.585400
-1023.795100 -450.360530 1429.622300
-113.334625 -206.734400 3691.820800
1177.989400 -39.348778 2653.583000
283.258670 -1827.368500 3736.417500
170.323870 -500.978850 3703.046100
-1039.325400 -1471.496800 3587.570800
-783.805360 -200.529980 2677.895800
-372.437960 -323.301500 3757.166300
-1318.115400 142.813890 2823.061800
-1135.408100 -1556.250200 3254.351000
447.777200 -1003.369700 3663.727500
689.520700 -952.181200 3622.769500
-391.611420 -1669.206400 3573.392300
272.441530 496.292570 1172.665800
-3.577078 493.249970 1087.999500
-397.279000 -1797.337200 3716.343500
-863.308800 -1576.337200 3429.119400
-1202.543600 33.628570 3468.074700
380.756600 346.757100 1500.103500
-1132.469500 -1541.065800 3018.599600
862.171200 -828.740100 3601.664600
-1265.269400 -1198.605000 2162.289800
435.959780 -327.051500 1032.003200
-1086.466700 -1186.970500 2081.399200
-639.935060 -71.891075 3533.260300
-1035.186200 -11.109493 2828.873000
864.846600 -631.465800 2561.950700
-782.055900 -700.987060 3810.295400
-653.132400 -1696.438700 3673.279800
323.754100 -148.989410 1578.810400
-1062.935800 218.050950 1514.934900
-938.797550 -571.215000 1978.166000
321.988250 -409.261380 3698.175300
667.233900 -197.032000 3707.256600
-906.480830 -898.196200 3770.432100
884.103200 -1686.065800 3647.054000
-695.883500 -377.158200 3787.943000
-75.760990 488.726560 1015.405700
707.490700 -947.329160 2337.483400
-961.876340 -442.528350 2270.938500
-1434.145800 -1035.402000 3673.773000
897.695430 381.432830 2272.554000
-1159.593500 -8.734663 2218.234400
582.877500 -1855.250200 3566.114300
-458.698360 391.904970 1176.330400
806.232240 -1931.200000 3551.561300
-437.243680 -1624.346600 3396.205600
-1051.675200 -755.327600 3775.429700
-1030.392700 -275.131130 3427.629400
-1185.430700 -1258.622700 3743.920200
-959.764500 -571.351900 2264.477800
632.670500 356.713560 1024.596300
898.838130 -1508.215700 3630.974400
-815.434900 -64.662704 2072.059600
1130.268100 -689.567200 2765.851300
-1281.780400 143.141560 3173.917500
316.117100 475.522340 1633.374400
784.266700 -631.570500 2744.189500
-932.516700 315.595000 3664.949000
-289.324770 499.894840 1255.365200
-963.111400 -726.418100 2061.191000
701.169900 -499.274840 3624.757000
23.223060 471.749330 1767.599700
-1289.230000 -1321.366800 3716.465000
-563.235050 520.545960 2338.973900
289.596900 -1270.736000 3689.642800
-897.524800 -22.761673 3416.355200
709.255100 -794.184750 3620.338600
718.233600 -1138.309700 3620.790800
-793.128970 -232.125520 2544.407000
-1239.492700 -811.992600 3754.338900
-935.474300 78.301550 3352.960200
239.860840 -991.572300 3692.292500
-759.473100 -1290.419400 3808.936800
-1258.943600 176.629430 2434.632000
1153.282500 456.115050 1860.266500
-622.515800 -67.883316 3336.211400
-1177.748900 -1582.421400 3116.905800
-616.040600 401.504330 2646.637500
-1063.566900 84.188930 2276.265900
-800.442500 380.728240 1383.619500
497.104000 478.892120 1034.959700
1034.800200 -1638.457900 3650.337600
-477.129760 -1047.066000 3786.213100
-1163.488900 -17.768215 1875.171000
389.197630 -515.719850 3666.209200
1035.507200 -1890.570100 3601.211200
-840.651000 -448.764950 1793.660200
293.210940 167.880510 1510.198000
1079.992600 382.672360 1540.680500
779.707400 -892.250100 2489.004000
-947.652600 -724.865230 1885.368800
-976.737300 -314.171420 1544.234500
-52.917263 -1418.243400 3735.359000
-219.088230 -1822.421500 3790.938000
-1255.115600 36.380390 2929.245600
-1027.712800 -1451.701800 3688.752000
1177.130100 -220.872150 2496.225000
-943.245850 147.587780 1764.086200
-602.057900 -1551.052900 3864.318800
-280.537400 -664.278500 3771.156200
932.475300 -422.302730 2481.375500
-1051.691700 149.342590 1607.491200
987.550300 303.733150 2500.962200
-568.600800 182.319460 3092.358200
534.334900 -184.998050 1012.467200
-406.556820 -419.201750 3789.189500
129.897420 288.988300 1537.443100
-747.754200 -64.381950 2259.634300
-880.275500 -1738.635500 3927.302000
-404.342530 496.421020 907.837200
-607.648200 516.169100 1791.409800
-797.813050 288.585200 3349.305700
-1493.581900 -1105.085800 2019.777100
-915.952800 -620.305850 3763.720200
927.460630 457.611660 1582.208400
-1476.429900 -940.868650 2026.381700
-523.190600 518.974800 2248.838400
548.110100 -384.280100 3656.191000
-937.339500 -1648.907000 3155.666500
-1008.402000 -1028.248900 2284.004600
450.389700 -1930.728300 3596.673300
-728.395750 -62.940260 2442.096000
239.651600 -1181.922600 3693.082800
-233.391480 380.189420 1768.434800
-84.644850 -1644.950700 3789.556200
-1330.961200 -743.578400 2106.978000
-421.211940 507.777100 1831.375200
766.057250 -1017.982500 3612.758300
-1485.822100 -632.911900 3606.759300
-972.694200 -312.581270 1826.891600
-896.518800 148.579160 1975.633200
-702.480900 -182.135330 2122.661000
-891.008700 -308.863860 2159.633000
286.549400 -116.695700 1496.349700
437.611820 486.679500 1137.351200
-1208.406200 -1451.326200 3684.186500
-829.372860 -1147.848400 3749.093300
-325.890530 502.791700 1886.619400
-275.329620 -1758.650400 3856.909000
-1192.547100 -999.487100 3767.829000
-1387.866600 -722.282530 3713.629200
757.137700 -791.571040 2755.177000
-1144.764600 70.307304 1621.543200
-822.969800 170.401630 2352.461700
-921.580570 -1863.482900 3823.779300
-85.301330 -1532.944300 3819.148400
988.977700 -228.783810 2437.031000
-298.369480 -1444.484600 3751.103000
810.349240 -705.891900 2658.447800
-918.496100 -939.375300 2411.463400
-946.146200 -44.761300 2206.020000
1002.809500 -576.516540 2504.119000
1054.597800 452.709930 1632.934400
939.118600 -382.156740 2673.860000
-128.184710 -1695.338300 3857.230700
-476.259770 499.074250 1324.403800
378.478500 -1731.439000 3773.953600
-418.275360 513.030900 2421.538600
-544.827940 501.425100 907.200440
-632.992860 388.683650 866.295040
-493.593100 369.273770 2900.991000
960.061950 -1825.395900 3743.887500
-1087.417500 162.909060 2013.744900
-977.551600 -1813.787800 3417.483000
-688.245360 482.261960 2309.706000
-1222.235200 -937.544000 2349.848900
-1231.361900 -1594.549800 3782.517600
-977.055800 -410.608550 1746.982400
535.973450 -0.916346 739.382260
-1392.694100 -1769.901100 3400.911900
1034.951300 359.636400 2373.703000
-658.556100 -165.891430 3479.323700
-887.966500 -1716.988200 3562.763700
1063.279500 -1864.926000 3492.013400
-1366.416000 -1664.519200 3603.887500
-381.130580 488.972470 2278.022200
-104.548440 -701.132200 3747.516600
-1088.159200 335.138460 1589.145800
273.305540 -1574.135900 3743.864700
368.224550 -1424.511200 3673.225600
-751.412400 360.551900 1043.791100
-1561.584000 -1796.357200 3356.958500
-249.149730 -436.713620 3759.932000
-1029.406400 385.741970 1759.443800
-800.751340 -43.896545 2955.246600
-1143.420900 14.006602 3297.136200
-757.953300 -427.539500 3689.054700
-107.446884 506.445920 1499.434400
-1393.060000 -1030.871800 2128.480500
-1072.299600 -381.775420 1762.042700
-1318.167500 -939.700700 3774.797900
-89.981730 501.110230 1208.645400
1102.970300 -544.083400 2718.318600
-394.836900 499.241820 1398.844100
700.330750 460.370180 931.837400
504.719420 -170.739180 1124.565100
-1098.902000 -31.136488 1753.825300
-730.188540 37.151430 2448.088600
-1319.777700 -567.450000 3692.549300
-1245.587900 -1086.914800 2396.478300
240.500060 -792.222800 3697.473600
-1411.042100 -549.841400 3642.740000
7.925518 411.723900 1607.433300
190.793620 476.996370 1668.662400
-819.489100 -50.703243 2497.769800
99.633720 -675.122000 3716.581300
-316.041350 -1897.666700 3711.313200
1085.974200 210.192780 2523.522000
-1272.556200 -1673.718500 3745.377700
-1039.286900 284.377400 1702.316400
855.500000 451.588130 1405.329800
-818.038450 -220.525380 3598.408000
-743.022900 517.409300 1846.963000
-1007.750800 -242.066860 1675.763400
-798.350160 414.784850 1959.715800
-502.425700 503.761800 1639.025100
-737.819400 86.224040 3686.139400
-467.470950 38.587950 3092.298600
-203.390870 492.011500 1721.514900
-355.776800 -1919.777200 3596.296100
590.182070 441.539060 1058.533700
-926.448360 -275.091600 1339.766800
-954.534240 -824.379200 1891.308700
448.782600 489.858200 1404.446300
-1211.426500 -692.955700 2135.958700
-591.326500 -1265.098300 3794.281200
381.419200 2.271862 1483.856600
-436.981630 -697.976440 3788.557400
-279.088870 -332.685500 3746.045700
1069.358400 -673.019840 2670.308600
-911.510440 -288.228360 1711.526200
-421.015470 -1798.289000 3331.741500
-1098.345200 -3.079536 2562.285600
988.566100 78.872140 2503.407700
-553.696350 322.333600 3057.859600
-655.664700 56.742687 3732.885300
182.523470 497.279020 1152.998800
-1124.766100 -1541.391700 3450.436500
-86.074030 44.968660 1549.550400
794.254500 -898.835140 2309.936300
515.187100 -1585.688400 3722.502700
-791.590300 161.161620 2068.786600
-1012.949340 -255.701770 2440.294000
-1035.115600 -1121.121800 2187.205600
-861.823000 -1420.873900 3466.141000
-1077.341900 -9.279948 2361.716300
-855.654050 -1593.528000 3915.827000
-1205.261000 11.650105 2742.363800
-792.886200 -84.864900 1684.715800
-220.591520 505.485630 1461.530600
322.152980 -1928.352700 3593.743000
-871.751830 -366.562900 1661.126500
-96.224390 -1792.166000 3838.258300
-779.555800 -1485.199100 3857.105700
-844.899960 77.654070 3761.275600
545.050500 -839.412700 3643.675500
-1040.917800 114.424750 1767.913700
-1134.421100 12.790279 3011.257600
-299.842320 -1195.039100 3766.349000
-928.316160 -202.269740 1513.672600
-707.491600 424.434360 1573.366300
-791.305800 -1763.395300 3911.213900
387.765530 -1844.701500 3567.710200
-1036.273800 -1478.421500 3289.790800
-330.993300 -1360.667000 3772.869000
-427.712220 -1488.311400 3811.385500
-1059.095600 428.757050 1482.694100
-927.994900 -407.862500 1828.189800
154.497800 -1939.378700 3577.879000
-1288.548200 -981.838200 2250.535200
-1336.987800 -1780.164000 3486.197500
28.960405 -1658.545900 3797.022000
-644.150800 340.742280 1995.981600
-641.505250 278.110140 2574.105500
-934.583000 -678.959200 1988.853400
-666.179000 -989.821530 3805.045400
1144.125500 -628.234740 2573.414300
1087.856800 -1755.615500 3300.142000
-881.355040 -327.713780 3701.006600
505.098360 -267.468260 986.357540
-253.579790 -1586.020600 3847.171900
-438.776000 488.011540 766.609600
-580.349200 439.473660 1400.947600
-1167.316800 107.707070 2244.907500
1005.592400 259.756900 2292.007800
-878.063960 -304.289280 1811.577900
-667.323670 -63.927288 3630.086000
-1329.101600 -931.066300 2115.360600
-672.373840 286.420400 2408.765900
411.168640 -402.254670 936.268250
833.265600 -1192.666500 3607.083700
833.079700 -534.721860 2708.090600
814.624150 -531.917700 3647.595200
-1403.601200 -831.692900 2118.752200
1046.193000 -36.752354 2478.225800
-1230.268700 119.980385 2366.412800
-978.322200 -12.230880 3112.569600
-782.016300 -363.523740 3755.808000
-1372.527000 -1302.697400 3749.276000
8.156313 -564.936100 3724.561800
-405.240400 494.294300 1104.925500
718.639600 -1063.121000 2305.906200
-628.766050 -154.258270 2902.964800
-1434.439800 -1212.423800 2068.968800
-658.523600 -462.811460 3811.705600
-1078.409900 -1131.020300 3727.946300
-774.453600 327.979830 2053.404800
-348.694700 -55.445156 3721.149400
-271.235750 458.709630 2056.940000
-1164.679800 -13.517818 2019.399000
60.593895 -1737.908700 3834.726300
-569.282500 -1633.136000 3785.202000
-685.971000 -1236.992900 3803.363000
-904.805600 -359.352900 1980.622600
1141.093100 161.001630 2618.707300
1490.027800 -196.133120 3358.667200
-836.938840 -92.849430 1320.539300
557.768070 279.354550 1428.529700
-482.812650 176.526730 3137.856200
-390.997400 -1709.104400 3659.066700
-691.456500 -1879.110400 3710.882800
1071.513100 -387.963350 2521.535000
-808.985800 -1017.832150 3795.527800
387.449800 472.447140 1578.798800
-915.164600 -460.551760 1360.122700
513.848100 462.790860 1518.281000
857.656430 -542.423900 2603.642000
713.495670 429.372920 1118.916600
-549.892460 -1120.277700 3791.401900
1227.630000 54.944695 2666.588100
-562.321660 377.245850 1232.074200
534.732100 167.870350 1008.084050
-993.291300 -1537.443000 2854.494100
-445.264250 -1240.722200 3781.907500
-624.639340 262.473140 2779.685500
531.613830 -38.596066 972.094240
-948.050500 -26.681501 2843.783000
560.465760 -133.070200 829.148600
566.658600 382.899660 1143.081300
-53.786250 487.160200 1611.304600
-970.098100 171.620800 3582.391600
-850.014700 -264.195400 1918.981700
-104.156166 -1116.943100 3743.209000
-424.261100 -1332.213900 3779.549000
18.301792 -1366.212000 3731.571000
-691.523200 -292.515100 3763.318600
-556.275900 475.227260 1005.456900
-923.693240 -61.028010 1794.035200
645.185700 476.537540 864.961550
579.245360 378.935580 946.981800
969.652400 467.324130 1881.874400
-801.350600 -161.072220 1616.332500
-154.331850 -65.362854 3703.792200
1021.518250 309.265320 2605.325700
-1386.601200 -866.820900 3682.849600
-1111.301100 59.937534 1888.483900
-932.942200 -722.069300 2352.508300
763.442900 458.152400 1536.679100
564.135100 -41.225200 1444.895900
-186.607240 -988.291200 3755.785200
-624.851200 -1768.272800 3453.501700
-223.183330 -1688.135600 3864.805700
1160.622600 425.641050 1678.689600
511.646760 127.274190 1475.454300
468.941250 -1944.299100 3510.137500
42.886528 506.260620 1451.717400
660.737400 -1230.217700 3630.608600
-1277.149000 132.769650 2943.140400
339.456880 491.638100 1115.701900
-1049.270000 -1556.563800 3239.672000
-1008.430500 -1026.639200 2083.724000
1229.756100 456.374500 2230.975800
-858.700000 -65.828170 1939.177900
-574.865360 -1811.738900 3267.340600
-981.664200 -590.587700 2172.799300
-72.651710 -1900.443600 3697.603300
-171.169400 497.021270 1175.107200
-898.689450 -1876.482700 3639.196000
808.354900 -1062.266000 2063.909000
-835.995400 -1939.777600 3491.924600
374.378850 -1824.530600 3730.074000
-1124.280200 -1137.126300 2141.983400
-1098.532200 -465.405850 3757.890400
-915.729500 -989.532600 3767.347200
816.182600 -644.722600 3612.145500
-168.294130 407.558900 1609.057600
897.962040 -1861.116600 3530.470700
-609.270750 -81.894930 3172.213900
-602.342830 -1666.774800 3609.316200
-155.069490 -1391.213500 3744.523400
-834.987730 -456.745120 3765.418000
404.028870 495.137420 808.005000
-633.449770 -1463.194700 3800.056000
412.010280 263.736570 1493.948100
-973.811500 -1738.740000 3151.709500
-667.588750 267.583530 3204.566200
-618.981500 265.488700 2894.984600
-913.514700 72.495220 3513.824700
603.205260 -946.373350 3637.257800
-145.546390 -813.811700 3750.233200
-996.947500 -1555.849700 3127.988500
-1225.124600 -1442.659900 3768.121000
-531.368900 -492.091640 3794.735400
750.299870 -1638.552400 3678.743200
248.006840 412.652280 1595.641400
-616.636100 -1847.453900 3348.520800
-914.224850 447.688480 1631.333700
-952.220500 -536.702450 1872.287800
-3.000608 481.236940 909.329160
-546.782000 521.043000 2560.087600
-1121.699800 13.321607 3135.980000
-175.835160 -1302.124500 3751.090800
-584.291300 519.411130 2454.222400
-944.308800 -1707.222400 3479.257800
787.555400 -1825.588000 3705.668000
958.844700 -1224.747900 2652.025100
326.558870 -253.155730 3634.467000
782.773800 -895.865840 2662.912800
-1540.838900 -1872.554700 3390.156700
-1447.659400 -1740.279200 3651.648000
-383.026460 -1177.697000 3776.639400
-232.228120 126.985310 1620.716300
518.277800 -1799.137600 3740.573700
-431.213620 -1593.665900 3580.022000
800.928040 474.425260 1918.524900
-268.805400 -1286.299800 3764.544400
-485.969880 -1393.745800 3779.678000
1180.935800 108.897280 2745.054700
-431.830750 99.379400 3140.551300
501.090400 232.849200 1480.359500
-1082.007800 -392.341400 3843.562700
792.842830 -1150.846200 2392.206300
192.637450 -45.480892 3738.099000
880.053800 461.155730 1668.349500
-39.368763 203.405620 1557.681400
-938.477400 471.249630 1796.308800
329.331670 -586.466550 3670.344700
200.037640 -580.008700 3691.806600
-428.982180 520.836200 2523.461700
-371.039340 498.943080 1714.579000
744.898800 462.706700 1681.929700
-1214.594400 -1644.478900 3317.231400
922.708400 -1306.210900 3649.803500
-887.095460 -1091.490600 2390.711200
1522.369400 -135.801530 3453.186800
-978.655300 5.148581 3376.441200
83.911840 484.685300 930.562100
-199.415510 -1509.769700 3813.080000
-1282.836500 -1131.002000 3760.747300
-162.671540 490.526250 1055.471700
-826.896600 -1897.591300 3723.777300
1088.869900 -1737.485500 3108.053000
-637.385130 276.923460 3019.863800
-94.651360 -415.840800 3755.994000
-655.275000 -1092.652600 3803.554700
-1484.009900 -1651.226700 3543.925500
-964.639400 -729.394170 2213.564500
-675.843700 276.464260 2130.109000
297.248780 345.744200 1512.457500
1037.977900 -1795.321300 3766.767300
-1043.496800 -508.873570 1706.920900
-689.980200 -546.280460 3814.593800
-582.197270 -936.408300 3796.797400
-925.226300 -435.103940 3757.767300
-893.637150 153.177540 2287.554200
-767.758850 283.265350 3186.438700
444.549130 481.404700 968.751900
-1071.207500 -443.091640 1957.245700
-1353.603800 -1030.307400 3729.736000
55.644940 480.369870 1588.730700
-702.738100 -1817.082600 3775.786900
445.978580 51.720540 873.105000
951.280940 453.477330 1468.733600
-1341.014900 28.262732 2258.514200
-909.258100 -1606.374000 3695.932900
141.617610 479.439360 857.973750
-1047.420500 -313.969760 1657.571400
-1084.731200 -3.247980 2702.903800
156.688280 398.144130 1554.836000
-707.246460 -171.155940 2371.320300
893.973400 -1047.402700 3613.660200
18.593540 498.419560 1170.964500
-964.439500 -997.304300 1915.592300
-1320.606800 -1654.306200 3675.515600
-952.328200 -1548.691200 3010.131600
-965.286900 35.325222 3637.289800
-252.218690 416.088470 1911.898600
580.788100 -261.026280 3609.978500
-1377.632700 -1180.973800 2157.493700
-969.063300 420.000430 1482.110200
-1319.758800 30.340805 2433.918200
-658.301640 328.696080 2479.560800
-1021.949340 -23.244894 2478.450200
-562.450200 -606.133670 3796.771700
-269.612340 -755.341100 3764.528300
-957.385400 -865.874700 2249.680400
905.097600 -753.260200 3615.839800
113.141440 128.941330 1536.078000
-645.400100 -156.809160 2676.655800
169.856230 -1035.170500 3704.748300
-22.511946 -1497.682100 3756.582000
119.361470 -1470.398200 3713.379000
-837.945900 41.870380 1600.488400
456.688500 -1399.634000 3660.467800
917.858200 -869.417240 2384.112500
-339.311460 504.653080 1995.861200
-725.406070 -183.974370 2548.828600
379.485800 -255.280010 1543.858600
-817.022950 -919.268860 2468.857700
-862.339540 153.286220 1899.955100
-404.578120 -1087.656900 3784.008300
-819.383400 -86.839430 1476.575200
-829.041100 -52.905914 2298.046100
-675.814150 -1688.004600 3862.858400
-913.743470 -54.847336 2130.170400
408.350160 -734.644300 3662.588400
1242.125600 461.454100 1995.966600
-418.166320 512.637800 2119.886500
-1070.722300 -281.790530 3187.486000
-982.329600 -60.538765 1516.014000
464.451630 -74.028650 1021.821960
-43.263050 444.424960 1717.505500
542.088600 -120.213776 960.250370
-920.653440 -32.380466 2674.061300
-1079.552200 161.470500 1927.872900
-1278.613900 -1419.882700 3653.305000
-876.125300 -593.750600 1843.229000
-1056.320600 -1107.478400 2266.157700
-40.411144 509.060850 1448.430400
-776.014950 -1812.942400 3832.699000
-503.164600 409.150820 943.439600
-1578.084700 -1701.397600 3384.428500
-1161.794200 -609.726260 3765.775000
-1420.027800 -1714.855000 3554.678200
-1295.399400 -1389.506300 3762.920200
1106.644300 462.951840 1943.167600
1189.784200 -676.221700 2710.064700
-865.518200 -826.432860 3769.582000
-952.257300 -925.743600 1972.039900
600.037200 452.319460 1300.215500
-1136.017800 50.330640 1722.510300
-756.829500 176.622570 3681.371300
-201.592390 198.688390 1589.959000
-258.850340 -1041.424300 3764.179200
180.021770 -853.540900 3701.659200
471.163700 -256.877870 1414.510100
-829.854500 -42.097034 2835.168700
-981.427370 90.971360 2461.438000
-216.467250 -1453.641800 3748.349000
-961.762150 356.663480 1540.506800
-766.906200 461.025330 1727.835200
-918.510860 -1765.206800 3728.303500
-170.332700 485.658540 906.253900
162.600650 40.037716 1524.707000
466.619750 -363.139560 3643.014400
1056.940000 296.415770 2440.035000
-649.369570 -1829.627700 3534.542500
-881.296260 -1668.521100 3421.283000
-756.306000 -130.842180 1962.137300
-528.728300 -1212.127700 3789.172400
477.505100 449.988100 857.965700
-720.850460 -847.907040 3818.025000
-663.749270 -80.571785 2577.799600
-988.207340 -1568.712000 3307.193000
66.936940 -1932.657800 3603.215000
525.183500 -1187.398600 3649.764400
-713.580100 522.362400 1962.267600
-287.493400 488.002560 2136.563000
743.394960 -1881.101800 3535.234000
89.450450 -1863.640500 3726.781200
-395.042630 482.425170 2820.937300
-206.000990 492.705660 1630.524900
-1290.057000 207.770780 3238.258300
371.854030 -408.077120 781.572750
-946.516200 -1068.216800 2443.466800
-801.135130 -886.177800 3805.360800
-53.101677 -963.899500 3739.760700
-269.409150 482.050450 780.256500
-32.568325 -1276.002000 3733.896500
-1289.900900 -1102.141100 2329.339000
-1480.244000 -1727.988200 3429.046900
1105.589600 -501.556640 2503.614700
997.767700 -349.800320 2544.563000
-700.767300 372.635130 1158.845100
871.176000 -1158.919100 2526.531500
649.613950 -1025.583000 2159.023000
-566.781430 512.509800 2051.687000
8.152830 -829.518070 3728.869000
-336.900180 -1562.720000 3841.372800
-802.141200 -1105.372100 3813.121800
-1013.587460 -764.084800 1971.107200
-775.676200 -46.764710 3147.054400
613.645500 160.320270 871.026200
642.045840 -1824.932500 3685.978000
-1004.076400 190.429800 1801.221100
-435.182130 518.403440 2689.214600
-237.962340 -1142.434600 3760.824000
-1170.042200 -506.277600 3758.710000
325.732940 483.126920 874.714540
965.032530 -960.935670 3658.886000
659.629800 388.495450 1205.663000
16.822613 475.433170 778.775270
115.172165 501.321170 1209.148100
-947.001900 -723.121770 3766.503400
-976.479700 -457.125460 2190.772200
-935.652200 -13.722437 3489.582800
-1208.177000 -1125.225000 2315.932000
949.371340 -1265.437400 2580.245800
737.360500 -873.775150 2555.474900
-750.745540 -1899.578400 3550.930200
130.852170 -1608.624800 3752.959000
-804.558900 -190.444460 2087.941000
1138.742200 -1849.613900 3516.661000
-122.927430 479.341220 836.339100
-907.024900 -1165.968300 3775.192900
-932.362800 -216.991270 2245.478800
-408.517240 -1913.335700 3454.954800
835.449300 -811.390200 2578.534200
1040.323100 -1284.236000 3643.246300
-1304.882000 -1612.377800 3604.227500
-843.952900 -1884.793000 3803.675300
529.798400 -200.579380 1426.838300
500.613530 78.312440 818.459100
666.923000 -1630.896000 3662.369100
-703.038500 427.720640 2161.271000
119.540900 -1199.230000 3715.422000
-799.419100 -525.585400 3743.523700
