ply
format ascii 1.0
comment Exported by SUIT
obj_info Generated by CloudCompare!
element vertex 1369
property float x
property float y
property float z
end_header
-27.093695 -499.832397 1597.374268 
-27.111895 -495.797577 1598.362427 
-27.113844 -491.462433 1598.386108 
-27.119686 -487.196533 1598.639404 
-27.121353 -482.854370 1598.643921 
-27.130949 -478.651642 1599.117676 
-27.152554 -474.655731 1600.301514 
-27.169987 -470.580536 1601.237183 
-27.183235 -466.428009 1601.924438 
-27.188248 -462.131134 1602.122070 
-27.217455 -458.240051 1603.752686 
-27.250610 -454.405426 1605.616333 
-27.279596 -450.491180 1607.231689 
-27.324732 -446.831635 1609.802979 
-27.345345 -442.760590 1610.921021 
-27.341385 -438.288910 1610.582764 
-27.341324 -433.880463 1610.475342 
-27.275818 -428.443970 1606.491821 
-27.238626 -423.468842 1604.185059 
-27.225735 -418.879456 1603.316772 
-27.233091 -414.602600 1603.647339 
-27.244387 -410.382690 1604.210571 
-27.259611 -406.217682 1605.006348 
-27.229616 -401.381195 1603.124756 
-27.203499 -396.610931 1601.473267 
-27.201796 -392.201050 1601.266479 
-27.220436 -388.081787 1602.263916 
-27.234825 -383.896545 1603.009277 
-27.281944 -380.162811 1605.691528 
-27.304256 -376.072144 1606.905518 
-27.322300 -371.916260 1607.867065 
-27.336065 -367.696930 1608.575439 
-27.378517 -363.854492 1610.981079 
-27.400217 -359.725830 1612.158936 
-27.430010 -355.695160 1613.815552 
-27.447262 -351.494293 1614.730469 
-27.447813 -347.076660 1614.657959 
-27.410955 -342.191833 1612.373413 
-27.386272 -337.468903 1610.809692 
-27.361366 -332.751282 1609.233276 
-27.373526 -328.486450 1609.849365 
-27.393799 -324.313751 1610.945313 
-27.422194 -320.229309 1612.521851 
-27.446272 -316.086121 1613.843872 
-27.466028 -311.886017 1614.910645 
-27.468983 -307.491486 1614.985107 
-27.492533 -303.323212 1616.277222 
-27.507591 -299.054993 1617.067993 
-27.480841 -294.334198 1615.388794 
-27.433041 -289.399933 1612.466431 
-27.359987 -284.218689 1608.053101 
-27.311663 -279.313965 1605.102417 
-27.238060 -274.170410 1600.659302 
-27.214252 -269.543671 1599.159302 
-27.190212 -264.922455 1597.646973 
-27.195179 -260.586853 1597.849365 
-27.199940 -256.247803 1598.040527 
-27.233772 -252.176346 1599.949707 
-27.275787 -248.168411 1602.343018 
-27.321819 -244.182877 1604.974365 
-27.413729 -240.585098 1610.316040 
-27.509701 -236.992661 1615.897949 
-27.605537 -233.368210 1621.472778 
-27.709633 -229.781265 1627.535400 
-27.863916 -226.568939 1636.562622 
-27.892246 -222.302963 1638.153198 
-27.890999 -217.796875 1637.998413 
-27.818144 -212.743576 1633.617798 
-27.774414 -207.931854 1630.958252 
-27.743038 -203.224655 1629.029419 
-27.740841 -198.736649 1628.824463 
-27.721598 -194.129974 1627.614868 
-27.723152 -189.671768 1627.634155 
-27.716064 -185.155365 1627.144897 
-27.729797 -180.776978 1627.885986 
-27.730680 -176.312424 1627.869873 
-27.743977 -171.924561 1628.588013 
-27.757057 -167.531036 1629.294434 
-27.769913 -163.132050 1629.989502 
-27.782549 -158.727631 1630.672974 
-27.778095 -154.224258 1630.349487 
-27.777628 -149.743805 1630.262695 
-27.781153 -145.284393 1630.412964 
-27.792891 -140.865448 1631.049438 
-27.791727 -136.379456 1630.926636 
-27.811455 -131.992966 1632.037842 
-27.830963 -127.599098 1633.137451 
-27.854481 -123.216667 1634.474854 
-27.865086 -118.771622 1635.052490 
-27.879690 -114.339577 1635.867798 
-27.902531 -109.935242 1637.170166 
-27.903988 -105.442795 1637.213501 
-27.909449 -100.964310 1637.494141 
-27.923134 -96.512512 1638.261841 
-27.936590 -92.055542 1639.017578 
-27.954046 -87.606773 1640.010864 
-27.967033 -83.139099 1640.742798 
-27.979795 -78.666588 1641.462646 
-27.988083 -74.178116 1641.920654 
-27.991903 -69.675835 1642.116699 
-27.987011 -65.152061 1641.801147 
-27.998831 -60.666065 1642.472290 
-28.010406 -56.175770 1643.131348 
-28.021746 -51.681313 1643.778198 
-28.032848 -47.182793 1644.412720 
-28.047951 -42.686783 1645.285156 
-28.062817 -38.185581 1646.145264 
-28.081682 -33.684387 1647.243042 
-28.087593 -29.163654 1647.578735 
-28.097504 -24.644531 1648.152100 
-28.136847 -20.143278 1650.462891 
-28.137798 -15.608049 1650.511719 
-28.159700 -11.080754 1651.797852 
-28.194080 -6.549298 1653.821655 
-28.181597 -2.003425 1653.083496 
-28.211250 2.542220 1654.832397 
-28.223717 7.093106 1655.569214 
-28.240171 11.649656 1656.543457 
-28.252150 16.208944 1657.255249 
-28.272352 20.778139 1658.454346 
-28.279604 25.342239 1658.891235 
-28.295086 29.917381 1659.815674 
-28.310324 34.497215 1660.727173 
-28.329556 39.087479 1661.876221 
-28.331593 43.657433 1662.013184 
-28.350334 48.256493 1663.137085 
-28.356117 52.837440 1663.498779 
-28.365896 57.428352 1664.097778 
-28.375429 62.021870 1664.684326 
-28.397427 66.647705 1666.007446 
-28.397999 71.226913 1666.069092 
-28.411032 75.839554 1666.867554 
-28.432283 80.479675 1668.152588 
-28.432129 85.062599 1668.176880 
-28.452892 89.711418 1669.436523 
-28.464943 94.338074 1670.184326 
-28.485212 98.997154 1671.418579 
-28.488314 103.600349 1671.641968 
-28.512312 108.283920 1673.099976 
-28.536068 112.974251 1674.545288 
-28.690617 118.211128 1683.707520 
-29.267492 125.305992 1717.784790 
-30.769222 136.695618 1806.423462 
-31.319506 144.189133 1838.941406 
-31.332895 149.301743 1839.789063 
-31.122240 153.315002 1827.420898 
-30.822790 156.808594 1809.815063 
-30.768009 161.489792 1806.645142 
-30.767841 166.448807 1806.699341 
-30.742117 171.265366 1805.246948 
-30.699286 175.975571 1802.787109 
-30.618292 180.447098 1798.076782 
-30.271633 183.283981 1777.690552 
-29.853331 185.563782 1753.076294 
-29.645615 189.051590 1740.889526 
-29.505138 192.912125 1732.671997 
-29.234072 195.852448 1716.747437 
-29.034472 199.195679 1705.041382 
-28.881031 202.798737 1696.060425 
-28.672825 205.958893 1683.847290 
-28.569593 209.822891 1677.831177 
-28.466213 213.652481 1671.807251 
-28.274515 216.771637 1660.569824 
-28.200254 220.748291 1656.266479 
-28.075495 224.297531 1648.982056 
-27.963190 227.908096 1642.433960 
-27.775309 230.854294 1631.423462 
-27.696304 234.662415 1626.842773 
-27.458010 237.069717 1612.855347 
-27.315989 240.246964 1604.553711 
-27.111120 242.815552 1592.540527 
-22.106062 -520.236938 1554.372314 
-22.551380 -526.382446 1585.780884 
-22.705006 -525.604370 1596.561890 
-22.704081 -521.218994 1596.413940 
-22.682840 -516.371704 1594.828613 
-22.671556 -511.757263 1593.945557 
-22.687101 -507.747589 1594.957764 
-22.678934 -503.205872 1594.292480 
-22.684145 -498.961487 1594.571411 
-22.696001 -494.859955 1595.318726 
-22.711134 -490.824707 1596.296387 
-22.726168 -486.781616 1597.265747 
-22.730938 -482.514771 1597.508667 
-22.738981 -478.314972 1597.981567 
-22.746906 -474.109650 1598.445313 
-22.751322 -469.828766 1598.660278 
-22.755611 -465.543610 1598.865234 
-22.773386 -461.530151 1600.021973 
-22.804672 -457.781036 1602.132202 
-22.832466 -453.950500 1603.994507 
-22.866989 -450.241699 1606.331421 
-22.904839 -446.584564 1608.902222 
-22.935781 -442.779510 1610.984375 
-22.935879 -438.372986 1610.887451 
-22.915318 -433.575562 1609.331543 
-22.863785 -428.206024 1605.588745 
-22.829159 -423.169739 1603.039551 
-22.814905 -418.520294 1601.928467 
-22.803917 -413.935760 1601.047852 
-22.823660 -409.907349 1602.336060 
-22.829548 -405.625183 1602.645996 
-22.800932 -400.734253 1600.520508 
-22.799639 -396.329376 1600.323608 
-22.794758 -391.863281 1599.873169 
-22.806940 -387.689087 1600.626953 
-22.822435 -383.565948 1601.614380 
-22.855047 -379.721222 1603.809204 
-22.887554 -375.862152 1605.996338 
-22.895773 -371.596497 1606.470093 
-22.903849 -367.325348 1606.933838 
-22.939444 -363.487152 1609.338745 
-22.957634 -359.362823 1610.515747 
-22.975683 -355.229340 1611.683105 
-22.983208 -350.928192 1612.108521 
-22.976715 -346.412872 1611.545654 
-22.963118 -341.794250 1610.482178 
-22.956280 -337.280151 1609.896118 
-22.942335 -332.665649 1608.809204 
-22.962955 -328.551117 1610.159912 
-22.973007 -324.279419 1610.765869 
-23.003780 -320.292358 1612.832886 
-23.013540 -316.004944 1613.419067 
-23.033592 -311.853149 1614.731445 
-23.039560 -307.505646 1615.051514 
-23.055826 -303.291321 1616.098022 
-23.064964 -298.978363 1616.642822 
-23.046019 -294.303192 1615.209351 
-23.002430 -289.325409 1612.040649 
-22.937658 -284.102020 1607.380737 
-22.911112 -279.369598 1605.415039 
-22.845882 -274.183105 1600.725342 
-22.811913 -269.390869 1598.239380 
-22.795246 -264.812714 1596.973145 
-22.806417 -260.558990 1597.668823 
-22.813921 -256.259796 1598.107056 
-22.831776 -252.071991 1599.275269 
-22.863503 -248.027802 1601.421387 
-22.926674 -244.306503 1605.782593 
-22.965145 -240.302444 1608.404907 
-23.049143 -236.751236 1614.233887 
-23.168180 -233.520905 1622.530273 
-23.255493 -229.931183 1628.593506 
-23.353251 -226.409119 1635.392822 
-23.384047 -222.213196 1637.478516 
-23.368914 -217.577789 1636.332397 
-23.311321 -212.561005 1632.198975 
-23.278158 -207.784470 1629.786743 
-23.251835 -203.080399 1627.857422 
-23.235886 -198.475067 1626.659668 
-23.237371 -194.021423 1626.690552 
-23.235142 -189.536926 1626.461304 
-23.232721 -185.051773 1626.219971 
-23.244238 -180.675842 1626.960815 
-23.237913 -176.160248 1626.447632 
-23.245522 -171.750046 1626.916504 
-23.256487 -167.361053 1627.622681 
-23.270800 -162.991318 1628.566040 
-23.288465 -158.638931 1629.746704 
-23.291803 -154.184860 1629.920776 
-23.280792 -149.637314 1629.087036 
-23.280203 -145.158966 1628.988037 
-23.300663 -140.808060 1630.371338 
-23.292610 -136.282440 1629.750488 
-23.312696 -131.919189 1631.110596 
-23.332598 -127.547165 1632.459229 
-23.355862 -123.185242 1634.045898 
-23.361214 -118.723358 1634.374268 
-23.380554 -114.327789 1635.688110 
-23.392612 -109.890610 1636.491699 
-23.393839 -105.399979 1636.534912 
-23.401964 -100.938622 1637.064941 
-23.416992 -96.502594 1638.082275 
-23.428276 -92.046074 1638.837891 
-23.439367 -87.584511 1639.581665 
-23.453814 -83.130569 1640.563232 
-23.464518 -78.658524 1641.283203 
-23.460815 -74.136856 1640.991943 
-23.467566 -69.647621 1641.437744 
-23.470568 -65.145393 1641.621582 
-23.473375 -60.641491 1641.793091 
-23.490191 -56.170013 1642.951782 
-23.499702 -51.676022 1643.598633 
-23.505463 -47.170841 1643.983521 
-23.518127 -42.675972 1644.855713 
-23.537708 -38.187454 1646.215820 
-23.535753 -33.660614 1646.063965 
-23.544266 -29.147482 1646.649536 
-23.559692 -24.638304 1647.722900 
-23.574909 -20.123022 1648.783813 
-23.575706 -15.592351 1648.832520 
-23.597637 -11.071289 1650.368896 
-23.626472 -6.543710 1652.392578 
-23.626663 -2.002619 1652.404297 
-23.637320 2.539671 1653.153564 
-23.651325 7.087061 1654.140259 
-23.668682 11.641483 1655.364502 
-23.678728 16.197575 1656.076294 
-23.706347 20.772928 1658.025635 
-23.708874 25.332087 1658.212524 
-23.728966 29.914364 1659.636597 
-23.738194 34.488579 1660.298584 
-23.747215 39.066002 1660.947754 
-23.752476 43.639984 1661.334595 
-23.771749 48.244427 1662.708496 
-23.776602 52.824238 1663.070190 
-23.784805 57.413998 1663.669312 
-23.792801 62.006371 1664.255737 
-23.804146 66.611198 1665.079468 
-23.804626 71.187904 1665.141357 
-23.826214 75.831955 1666.689087 
-23.833389 80.435661 1667.225098 
-23.836813 85.028755 1667.499146 
-23.847126 89.649071 1668.259644 
-23.860786 94.286568 1669.257202 
-23.877787 98.943153 1670.491455 
-23.891033 103.589996 1671.463623 
-23.911165 108.273117 1672.921753 
-23.938181 112.996468 1674.865845 
-24.011078 117.955597 1680.038696 
-24.360239 124.352997 1704.644043 
-25.715544 136.214142 1800.019287 
-26.177118 143.690445 1832.539795 
-26.308809 149.469971 1841.860596 
-26.192322 153.842438 1833.726318 
-25.990700 157.653717 1819.604980 
-25.859760 161.829834 1810.456543 
-25.841913 166.685074 1809.265137 
-25.795559 171.344086 1806.069946 
-25.773779 176.153244 1804.604980 
-25.688162 180.505478 1798.650391 
-25.383263 183.241776 1777.268433 
-25.131342 186.253494 1759.614014 
-24.953550 189.732040 1747.176147 
-24.715652 192.673660 1730.509033 
-24.562422 196.200134 1719.800415 
-24.356180 199.234055 1705.361450 
-24.174576 202.394989 1692.656616 
-24.017588 205.696945 1681.684692 
-23.938063 209.616837 1676.165405 
-23.847837 213.410431 1669.893677 
-23.687056 216.524384 1658.656250 
-23.628304 220.528763 1654.601318 
-23.537741 224.207596 1648.307861 
-23.401342 227.406158 1638.788208 
-23.300030 230.900024 1631.739136 
-23.135365 233.714905 1620.229858 
-23.044430 237.225510 1613.911987 
-22.848057 239.595490 1600.170288 
-17.902386 -525.880920 1558.602905 
-18.215843 -530.753906 1585.967529 
-18.315512 -529.299438 1594.613525 
-18.331125 -525.388489 1595.899414 
-18.311356 -520.464355 1594.086670 
-18.280586 -515.239563 1591.309448 
-18.295925 -511.318115 1592.567017 
-18.292131 -506.859131 1592.148193 
-18.282785 -502.249542 1591.242432 
-18.292421 -498.161224 1591.996338 
-18.310163 -494.287140 1593.458252 
-18.322371 -490.256561 1594.434570 
-18.348175 -486.580719 1596.598999 
-18.343809 -482.099731 1596.122925 
-18.347555 -477.832062 1596.355469 
-18.353947 -473.630890 1596.818359 
-18.354752 -469.283844 1596.791748 
-18.371931 -465.351166 1598.196289 
-18.383535 -461.270416 1599.112183 
-18.414299 -457.660339 1601.702759 
-18.439499 -453.898621 1603.805664 
-18.481152 -450.526031 1607.346436 
-18.508978 -446.799835 1609.677124 
-18.520189 -442.663269 1610.554199 
-18.520264 -438.257843 1610.457275 
-18.489843 -433.138000 1607.693604 
-18.442678 -427.644409 1603.466309 
-18.411930 -422.549988 1600.673950 
-18.400398 -417.906555 1599.561401 
-18.397045 -413.452515 1599.163330 
-18.401888 -409.182343 1599.481323 
-18.401072 -404.785400 1599.304688 
-18.386259 -400.084167 1597.904663 
-18.379639 -395.566376 1597.220581 
-18.384016 -391.285767 1597.497070 
-18.396620 -387.176239 1598.492554 
-18.409122 -383.058594 1599.478760 
-18.441019 -379.333984 1602.159058 
-18.458899 -375.309143 1603.614746 
-18.471100 -371.161713 1604.574463 
-18.491564 -367.172577 1606.255859 
-18.525902 -363.445770 1609.148438 
-18.529411 -359.105225 1609.348999 
-18.535593 -354.814209 1609.783325 
-18.541658 -350.517975 1610.207764 
-18.533602 -345.955292 1609.399292 
-18.519804 -341.290649 1608.090210 
-18.517071 -336.833832 1607.747681 
-18.519815 -332.476593 1607.883667 
-18.539274 -328.414215 1609.479004 
-18.550198 -324.193390 1610.329834 
-18.572245 -320.159088 1612.151611 
-18.585745 -315.969055 1613.228149 
-18.604752 -311.864868 1614.785767 
-18.606762 -307.470734 1614.860474 
-18.619900 -303.256927 1615.906860 
-18.627281 -298.944458 1616.451904 
-18.617617 -294.359009 1615.510132 
-18.576771 -289.292511 1611.849365 
-18.524454 -284.069550 1607.189209 
-18.508657 -279.422882 1605.715942 
-18.453148 -274.193604 1600.780029 
-18.422884 -269.359894 1598.047363 
-18.406593 -264.741547 1596.534424 
-18.421274 -260.569031 1597.723633 
-18.421675 -256.190948 1597.668091 
-18.444592 -252.120438 1599.577026 
-18.470222 -248.075455 1601.723389 
-18.518414 -244.315979 1605.837769 
-18.563669 -240.495499 1609.696655 
-18.608826 -236.652191 1613.547241 
-18.690773 -233.246567 1620.606323 
-18.784012 -229.940155 1628.649780 
-18.865816 -226.452072 1635.696899 
-18.890692 -222.255295 1637.782715 
-18.867096 -217.487946 1635.645386 
-18.814886 -212.408768 1631.015869 
-18.788097 -207.635406 1628.603394 
-18.772524 -202.996048 1627.169678 
-18.756788 -198.362381 1625.723389 
-18.752291 -193.852371 1625.257568 
-18.753332 -189.400482 1625.276123 
-18.751373 -184.918503 1625.034546 
-18.757818 -180.518311 1625.526489 
-18.761265 -176.086868 1625.758545 
-18.775972 -171.756882 1626.973267 
-18.784824 -167.367691 1627.679321 
-18.787821 -162.923492 1627.876587 
-18.796377 -158.524765 1628.559692 
-18.799070 -154.073914 1628.733398 
-18.798746 -149.597778 1628.646118 
-18.801128 -145.142700 1628.796143 
-18.811935 -140.749496 1629.681396 
-18.805428 -136.225723 1629.060059 
-18.827375 -131.904419 1630.918701 
-18.840590 -127.513550 1632.018066 
-18.847927 -123.078011 1632.607544 
-18.855110 -118.638016 1633.184937 
-18.870728 -114.245682 1634.498657 
-18.877600 -109.795044 1635.052612 
-18.884319 -105.340271 1635.594604 
-18.893745 -100.896759 1636.373901 
-18.905882 -96.462593 1637.391235 
-18.912128 -91.993996 1637.897217 
-18.918222 -87.521721 1638.391479 
-18.935623 -83.096176 1639.872192 
-18.941395 -78.614075 1640.342041 
-18.949879 -74.139832 1641.049683 
-18.955334 -69.650421 1641.495483 
-18.960630 -65.157883 1641.929321 
-18.960026 -60.643936 1641.851074 
-18.967869 -56.155293 1642.510132 
-18.975552 -51.662483 1643.156982 
-18.988811 -47.179874 1644.291382 
-18.996176 -42.677696 1644.913818 
-19.009121 -38.183231 1646.024048 
-19.013283 -33.667061 1646.371948 
-19.011545 -29.139854 1646.207886 
-19.015390 -24.620708 1646.531372 
-19.033424 -20.114729 1648.092163 
-19.039812 -15.590630 1648.640869 
-19.051783 -11.066732 1649.677246 
-19.063587 -6.537082 1650.701172 
-19.069483 -2.001193 1651.212769 
-19.080963 2.538245 1652.212158 
-19.095148 7.084151 1653.448730 
-19.109169 11.636708 1654.673096 
-19.117281 16.190935 1655.384888 
-19.133846 20.758190 1656.834351 
-19.133017 25.310318 1656.771484 
-19.160734 29.906612 1659.195435 
-19.162443 34.469315 1659.357544 
-19.181215 39.067581 1661.006592 
-19.185467 43.641743 1661.393311 
-19.198162 48.239159 1662.517334 
-19.202082 52.818474 1662.879028 
-19.202965 57.390591 1662.978516 
-19.209425 61.981102 1663.565063 
-19.218588 66.584053 1664.388794 
-19.227587 71.190773 1665.200195 
-19.239285 75.812401 1666.248291 
-19.250818 80.438911 1667.283936 
-19.259315 85.057510 1668.057129 
-19.267649 89.679359 1668.817749 
-19.278679 94.318405 1669.815063 
-19.280945 98.917717 1670.051147 
-19.297377 103.594154 1671.522339 
-19.310772 108.261391 1672.731079 
-19.326864 112.950783 1674.176514 
-19.385746 117.908073 1679.349609 
-19.699270 124.502777 1706.698486 
-20.699512 135.750275 1793.850464 
-21.244066 144.376938 1841.326782 
-21.287466 149.737595 1845.164307 
-21.230549 154.389404 1840.267456 
-21.101992 158.476105 1829.132813 
-20.973328 162.500809 1817.989746 
-20.933163 167.171036 1814.556030 
-20.889992 171.797394 1810.861694 
-20.849529 176.426132 1807.404907 
-20.714682 180.214493 1795.728271 
-20.494110 183.172470 1776.584229 
-20.282068 186.103729 1758.183716 
-20.118498 189.390396 1744.005981 
-19.943464 192.488586 1728.829956 
-19.836811 196.179688 1719.611816 
-19.670225 199.213074 1705.172363 
-19.540630 202.550629 1693.956543 
-19.416668 205.886200 1683.231934 
-19.335346 209.625076 1676.223389 
-19.234013 213.103546 1667.471558 
-19.155355 216.790436 1660.696777 
-19.059551 220.241699 1652.428101 
-18.972200 223.747086 1644.896606 
-18.910343 227.517609 1639.587646 
-18.822824 230.943863 1632.042847 
-18.718204 234.114548 1623.007446 
-18.573803 236.728424 1610.504517 
-18.426552 239.236572 1597.752686 
-18.304798 242.011749 1587.223999 
-13.525429 -525.691528 1545.519775 
-13.834152 -533.369812 1580.919678 
-13.936897 -532.978210 1592.648071 
-13.936441 -528.607971 1592.516479 
-13.935916 -524.235352 1592.375122 
-13.920826 -519.319824 1590.559448 
-13.909785 -514.563416 1589.207275 
-13.906949 -510.114838 1588.796143 
-13.910254 -505.891602 1589.089600 
-13.909343 -501.514069 1588.896851 
-13.922904 -497.654480 1590.365234 
-13.930170 -493.563324 1591.109253 
-13.943621 -489.684875 1592.562134 
-13.952848 -485.651031 1593.528931 
-13.968268 -481.825073 1595.205444 
-13.962771 -477.274384 1594.478882 
-13.961362 -472.865662 1594.220947 
-13.976593 -469.016083 1595.872437 
-13.983398 -464.877106 1596.555908 
-14.006886 -461.283112 1599.152710 
-14.028229 -457.604523 1601.502930 
-14.047430 -453.843384 1603.605835 
-14.074967 -450.337067 1606.664917 
-14.087767 -446.346497 1608.031372 
-14.094198 -442.148132 1608.666260 
-14.100551 -437.943420 1609.291626 
-14.073158 -432.697113 1606.044556 
-14.032999 -427.079468 1601.332764 
-14.015879 -422.180817 1599.264160 
-14.007088 -417.541077 1598.150757 
-13.998191 -412.903839 1597.025513 
-14.006094 -408.762390 1597.826660 
-14.005464 -404.369659 1597.648926 
-13.996282 -399.733063 1596.490479 
-13.991233 -395.218964 1595.805664 
-14.000910 -391.119385 1596.809692 
-14.010511 -387.011658 1597.804932 
-14.017913 -382.837860 1598.547485 
-14.037966 -379.001007 1600.740723 
-14.051580 -374.979828 1602.195557 
-14.062996 -370.892120 1603.398071 
-14.084963 -367.072357 1605.810425 
-14.102609 -363.127502 1607.726929 
-14.111665 -358.953186 1608.659058 
-14.118506 -354.717499 1609.337402 
-14.103934 -349.946289 1607.562378 
-14.099915 -345.442719 1606.997070 
-14.100061 -341.042450 1606.909424 
-14.100112 -336.639709 1606.811157 
-14.104337 -332.335327 1607.191528 
-14.125573 -328.423889 1609.521606 
-14.136039 -324.252045 1610.617676 
-14.150697 -320.168579 1612.194336 
-14.163126 -316.026215 1613.516357 
-14.177612 -311.921326 1615.074219 
-14.181289 -307.572906 1615.394653 
-14.187013 -303.266022 1615.950073 
-14.192636 -298.953400 1616.494873 
-14.191717 -294.501526 1616.291138 
-14.156301 -289.345123 1612.138550 
-14.114290 -284.078125 1607.232300 
-14.108710 -279.559204 1606.497925 
-14.062115 -274.243835 1601.069336 
-14.039058 -269.409363 1598.336914 
-14.026650 -264.790253 1596.824219 
-14.037835 -260.616943 1598.013306 
-14.038140 -256.238068 1597.957886 
-14.053446 -252.128067 1599.620239 
-14.072976 -248.083008 1601.766724 
-14.101054 -244.173798 1604.892334 
-14.144178 -240.502853 1609.740356 
-14.178582 -236.659424 1613.591064 
-14.238861 -233.218323 1620.402954 
-14.318556 -230.051483 1629.436523 
-14.350581 -226.083862 1633.017212 
-14.380354 -222.061478 1636.340820 
-14.364537 -217.330750 1634.450806 
-14.329087 -212.318954 1630.316406 
-14.304338 -207.484512 1627.407715 
-14.296805 -202.909958 1626.469727 
-14.280478 -198.217926 1624.526978 
-14.281385 -193.770004 1624.557129 
-14.284353 -189.348801 1624.823975 
-14.280684 -184.839874 1624.333862 
-14.292113 -180.523926 1625.571167 
-14.294738 -176.092361 1625.803101 
-14.301596 -171.710007 1626.520630 
-14.303993 -167.271179 1626.729370 
-14.319327 -162.978104 1628.418701 
-14.325845 -158.577911 1629.101929 
-14.325721 -154.102127 1629.026978 
-14.327656 -149.647949 1629.188965 
-14.327294 -145.169312 1629.089966 
-14.328991 -140.711090 1629.228027 
-14.330570 -136.250717 1629.354248 
-14.345115 -131.908569 1630.963745 
-14.350821 -127.478821 1631.564697 
-14.360773 -123.081886 1632.652588 
-14.364066 -118.623756 1632.980835 
-14.371600 -114.197258 1633.795654 
-14.381203 -109.781845 1634.848267 
-14.388503 -105.343597 1635.639771 
-14.389136 -100.854042 1635.670898 
-14.398383 -96.421776 1636.687988 
-14.409695 -91.996918 1637.942749 
-14.414334 -87.524475 1638.436768 
-14.423225 -83.073624 1639.418213 
-14.427624 -78.592758 1639.888184 
-14.431902 -74.108513 1640.346069 
-14.431684 -69.599915 1640.292236 
-14.437905 -65.120506 1640.975708 
-14.437444 -60.609150 1640.897583 
-14.445604 -56.131588 1641.806152 
-14.455832 -51.656303 1642.952759 
-14.463750 -47.167107 1643.837158 
-14.473732 -42.679050 1644.959473 
-14.481407 -38.178677 1645.819946 
-14.484581 -33.663048 1646.167847 
-14.487633 -29.145187 1646.503662 
-14.486185 -24.617773 1646.327148 
-14.497738 -20.109299 1647.637939 
-14.498232 -15.581721 1647.687012 
-14.509539 -11.062079 1648.973267 
-14.522910 -6.536306 1650.497314 
-14.527404 -2.000955 1651.008911 
-14.538337 2.538326 1652.258057 
-14.544766 7.082245 1652.994751 
-14.553263 11.631831 1653.969116 
-14.561635 16.186586 1654.931152 
-14.585192 20.768196 1657.630249 
-14.577995 25.311123 1656.817505 
-14.588177 29.885155 1657.991821 
-14.596043 34.460079 1658.903809 
-14.608158 39.051281 1660.302979 
-14.611396 43.623539 1660.689697 
-14.621072 48.219055 1661.813843 
-14.628431 52.812256 1662.675415 
-14.633481 57.400990 1663.274658 
-14.631843 61.964558 1663.111694 
-14.641008 66.576225 1664.185303 
-14.643496 71.161163 1664.497070 
-14.650221 75.769585 1665.295654 
-14.659011 80.393517 1666.331421 
-14.663301 84.996872 1666.855103 
-14.667466 89.602127 1667.366089 
-14.680243 94.265297 1668.863159 
-14.684155 98.876740 1669.348877 
-14.696674 103.551285 1670.820190 
-14.715614 108.280891 1673.026978 
-14.723511 112.937614 1673.973511 
-14.746552 117.720177 1676.652710 
-14.983256 124.289505 1703.753540 
-15.725747 135.360291 1788.665161 
-16.278046 145.198410 1851.845459 
-16.230429 149.842926 1846.461060 
-16.252443 155.122345 1849.037598 
-16.178440 159.469055 1840.640259 
-16.082558 163.547043 1829.743286 
-16.030149 168.020828 1823.817017 
-15.995054 172.648743 1819.871460 
-15.918495 176.794235 1811.187012 
-15.789632 180.294662 1796.523804 
-15.623744 183.280243 1777.627686 
-15.464356 186.240479 1759.474976 
-15.361458 189.799149 1747.781860 
-15.245467 193.127670 1734.592163 
-15.101194 196.016602 1718.168579 
-14.911297 198.208969 1696.527710 
-14.849483 202.025314 1689.534546 
-14.765900 205.500031 1680.052002 
-14.712624 209.353790 1674.036499 
-14.650599 213.047028 1667.020996 
-14.584169 216.636154 1659.502686 
-14.528507 220.347061 1653.216553 
-14.457619 223.787460 1645.189087 
-14.391002 227.251099 1637.651001 
-14.330818 230.776703 1630.849365 
-14.240296 233.766663 1620.577026 
-14.162709 236.916519 1611.784912 
-14.015931 238.838821 1595.075928 
-13.953416 242.131607 1588.008545 
-9.420753 -532.590088 1565.913696 
-9.552279 -535.686157 1587.821411 
-9.560504 -531.804077 1589.118652 
-9.551650 -526.972168 1587.559937 
-9.552684 -522.689453 1587.652100 
-9.552249 -518.325989 1587.497070 
-9.540370 -513.347229 1585.428711 
-9.545527 -509.288177 1586.205322 
-9.542083 -504.769409 1585.543457 
-9.547150 -500.700226 1586.302124 
-9.559318 -496.995514 1588.245728 
-9.565734 -492.983368 1589.227173 
-9.569247 -488.817078 1589.722412 
-9.575578 -484.790344 1590.687012 
-9.581867 -480.755646 1591.643311 
-9.589547 -476.784485 1592.830933 
-9.592878 -472.592041 1593.291138 
-9.596160 -468.394165 1593.742188 
-9.603706 -464.399536 1594.904297 
-9.624163 -461.016418 1598.220947 
-9.641714 -457.476959 1601.051514 
-9.659238 -453.920197 1603.876221 
-9.675289 -450.278992 1606.453857 
-9.685530 -446.355438 1608.061157 
-9.688507 -442.091156 1608.454956 
-9.685647 -437.560425 1607.873901 
-9.653785 -431.735321 1602.452271 
-9.634848 -426.511261 1599.187866 
-9.630314 -421.935547 1598.327026 
-9.618464 -417.046692 1596.244995 
-9.618146 -412.663330 1596.087036 
-9.620670 -408.400909 1596.403076 
-9.621683 -404.072845 1596.466797 
-9.613913 -399.378876 1595.064941 
-9.611891 -394.928162 1594.622070 
-9.619996 -390.890839 1595.868408 
-9.625136 -386.726959 1596.619873 
-9.630219 -382.556213 1597.361816 
-9.642543 -378.665131 1599.311035 
-9.653359 -374.704346 1601.008667 
-9.662663 -370.675720 1602.454102 
-9.676302 -366.802979 1604.622070 
-9.689893 -362.916016 1606.782227 
-9.696115 -358.744110 1607.713745 
-9.702279 -354.564423 1608.635620 
-9.692259 -349.795044 1606.860229 
-9.689494 -345.293304 1606.294556 
-9.695463 -341.101349 1607.184937 
-9.698436 -336.799896 1607.576294 
-9.702812 -332.543915 1608.202026 
-9.720358 -328.729279 1611.022583 
-9.726088 -324.504456 1611.874268 
-9.733225 -320.320801 1612.961304 
-9.744721 -316.272095 1614.774658 
-9.754684 -312.163879 1616.333130 
-9.754267 -307.719177 1616.162964 
-9.758204 -303.410217 1616.718750 
-9.762074 -299.095612 1617.263916 
-9.759967 -294.597076 1616.814575 
-9.737098 -289.483246 1612.908325 
-9.706740 -284.170929 1607.756226 
-9.694030 -279.394775 1605.544067 
-9.657552 -273.955994 1599.375732 
-9.656504 -269.539307 1599.107910 
-9.643530 -264.796112 1596.855469 
-9.651221 -260.622711 1598.044678 
-9.651432 -256.243774 1597.989502 
-9.664922 -252.211166 1600.145752 
-9.673897 -248.050476 1601.551147 
-9.700627 -244.328888 1605.912964 
-9.725821 -240.544968 1610.019287 
-9.753934 -236.809021 1614.612305 
-9.787946 -233.188110 1620.187622 
-9.847198 -230.126160 1629.963989 
-9.867729 -226.123032 1633.297241 
-9.883732 -221.999557 1635.877808 
-9.875838 -217.335663 1634.483398 
-9.852957 -212.355865 1630.597046 
-9.838922 -207.583542 1628.183960 
-9.826290 -202.852966 1626.006104 
-9.816554 -198.192307 1624.311279 
-9.818671 -193.774414 1624.589600 
-9.816230 -189.266693 1624.111328 
-9.813708 -184.759735 1623.621094 
-9.821565 -180.445663 1624.858154 
-9.824862 -176.042816 1625.338501 
-9.829577 -171.661713 1626.056030 
-9.832719 -167.249557 1626.513184 
-9.843261 -162.957062 1628.202637 
-9.846248 -158.533356 1628.637085 
-9.846161 -154.058823 1628.562012 
-9.845992 -149.583130 1628.474731 
-9.845742 -145.106415 1628.375610 
-9.849906 -140.692947 1629.011841 
-9.852489 -136.253845 1629.387085 
-9.859490 -131.871490 1630.498047 
-9.863414 -127.443001 1631.099121 
-9.870255 -123.047318 1632.186768 
-9.869516 -118.554398 1632.016235 
-9.873197 -114.113197 1632.581665 
-9.876796 -109.667740 1633.135254 
-9.883315 -105.250114 1634.175903 
-9.889751 -100.825752 1635.204834 
-9.893106 -96.365501 1635.722778 
-9.896378 -91.901421 1636.228638 
-9.902570 -87.460175 1637.221680 
-9.907178 -83.000031 1637.953247 
-9.914708 -78.558853 1639.172241 
-9.917649 -74.076553 1639.630005 
-9.917500 -69.569908 1639.576172 
-9.923279 -65.102287 1640.509399 
-9.925968 -60.610554 1640.930664 
-9.927068 -56.107391 1641.089844 
-9.937106 -51.649685 1642.736084 
-9.939545 -47.146805 1643.120972 
-9.946406 -42.660694 1644.243286 
-9.950178 -38.156490 1644.853394 
-9.953865 -33.648575 1645.451538 
-9.954458 -29.128258 1645.537354 
-9.957973 -24.614626 1646.110474 
-9.962910 -20.100662 1646.921631 
-9.967760 -15.582081 1647.720337 
-9.977038 -11.064005 1649.256592 
-9.981718 -6.534487 1650.030640 
-9.986313 -2.000700 1650.792358 
-9.992324 2.537621 1651.791504 
-9.995243 7.079214 1652.278442 
-10.001083 11.626856 1653.252930 
-10.005334 16.177233 1653.964844 
-10.017018 20.746870 1655.914307 
-10.016582 25.296513 1655.851196 
-10.026591 29.876883 1657.525757 
-10.028992 34.440220 1657.937622 
-10.038824 39.034637 1659.586670 
-10.041051 43.604961 1659.973633 
-10.052215 48.220169 1661.847534 
-10.048254 52.766109 1661.209839 
-10.051725 57.350849 1661.809204 
-10.058116 61.956726 1662.895508 
-10.061414 66.547951 1663.469727 
-10.066128 71.152184 1664.281006 
-10.072256 75.771339 1665.329224 
-10.073792 80.359428 1665.615967 
-10.081248 84.998840 1666.888794 
-10.085612 89.617538 1667.649414 
-10.092896 94.267479 1668.896851 
-10.094083 98.864319 1669.133057 
-10.099689 103.507515 1670.105469 
-10.100704 108.106682 1670.316528 
-10.113639 112.839767 1672.510742 
-10.127981 117.600945 1674.940918 
-10.248725 123.658966 1695.061035 
-10.771207 134.856491 1781.970337 
-11.188410 145.162842 1851.384277 
-11.173659 150.047638 1848.990112 
-11.194784 155.417130 1852.562500 
-11.154385 159.923721 1845.907593 
-11.115414 164.414719 1839.491455 
-11.076371 168.869217 1833.064819 
-11.047736 173.451675 1828.370117 
-10.972641 177.257538 1815.950928 
-10.854119 180.273911 1796.310913 
-10.704178 182.646515 1771.445923 
-10.617031 185.982849 1757.023926 
-10.549282 189.588608 1745.828491 
-10.457589 192.691635 1730.651245 
-10.362886 195.654495 1714.973633 
-10.296531 199.079407 1704.011353 
-10.216709 202.177551 1690.809448 
-10.145814 205.383865 1679.092773 
-10.112168 209.296768 1673.573608 
-10.065055 212.894180 1665.814209 
-10.023857 216.576630 1659.039795 
-9.982611 220.220596 1652.258179 
-9.956208 224.161224 1647.946899 
-9.895519 227.290421 1637.931152 
-9.824389 230.119812 1626.178101 
-9.768112 233.239304 1616.896973 
-9.705862 236.162308 1606.622192 
-9.625764 238.586365 1593.376709 
-9.581303 241.837112 1586.062378 
-5.061600 -528.826416 1542.393677 
-5.165698 -535.400024 1574.220093 
-5.196466 -534.260986 1583.572998 
-5.199393 -530.231384 1584.392578 
-5.203848 -526.351501 1585.678589 
-5.206734 -522.306763 1586.482300 
-5.198732 -517.174011 1583.948486 
-5.198458 -512.817017 1583.781006 
-5.202821 -508.914063 1585.032715 
-5.200161 -504.322784 1584.131592 
-5.202921 -500.257019 1584.889160 
-5.206437 -496.258728 1585.876953 
-5.207591 -492.031311 1586.140015 
-5.211840 -488.091949 1587.349854 
-5.216850 -484.216095 1588.791260 
-5.221057 -480.258087 1589.985596 
-5.222113 -476.005707 1590.213745 
-5.223923 -471.819794 1590.671875 
-5.230409 -468.049255 1592.560791 
-5.236876 -464.266266 1594.442627 
-5.243323 -460.470703 1596.317139 
-5.257606 -457.346069 1600.589233 
-5.271094 -454.129150 1604.616821 
-5.278277 -450.351868 1606.713501 
-5.283078 -446.361206 1608.080078 
-5.283125 -441.964905 1607.991455 
-5.277621 -437.108765 1606.203491 
-5.256291 -430.964264 1599.573364 
-5.249115 -426.003967 1597.273560 
-5.246637 -421.433136 1596.411499 
-5.241751 -416.674805 1594.812134 
-5.243157 -412.419586 1595.137329 
-5.246116 -408.282898 1595.937378 
-5.245083 -403.834015 1595.516235 
-5.247188 -399.625763 1596.054443 
-5.245293 -395.112701 1595.369263 
-5.249716 -391.073486 1596.616089 
-5.250932 -386.790588 1596.881958 
-5.256093 -382.792999 1598.353760 
-5.261225 -378.784760 1599.816895 
-5.266329 -374.765991 1601.271362 
-5.272202 -370.792786 1602.960693 
-5.277249 -366.752441 1604.397583 
-5.287854 -363.085266 1607.533325 
-5.289653 -358.803070 1607.977173 
-5.286623 -354.194397 1606.945557 
-5.285952 -349.746796 1606.635254 
-5.284443 -345.245636 1606.069458 
-5.286899 -341.002716 1606.715332 
-5.290121 -336.804474 1607.595825 
-5.294112 -332.649109 1608.711304 
-5.302080 -328.733765 1611.042236 
-5.306007 -324.557953 1612.139160 
-5.312310 -320.518921 1613.962036 
-5.316975 -316.371979 1615.284912 
-5.322411 -312.262451 1616.843872 
-5.322989 -307.862946 1616.919556 
-5.323528 -303.460266 1616.984375 
-5.325640 -299.144928 1617.529663 
-5.323687 -294.601196 1616.834595 
-5.312018 -289.531189 1613.174438 
-5.295459 -284.218109 1608.022217 
-5.292561 -279.654480 1607.041870 
-5.271859 -274.169708 1600.627563 
-5.264828 -269.419067 1598.388062 
-5.260982 -264.840454 1597.121826 
-5.263561 -260.586334 1597.817749 
-5.263676 -256.207947 1597.762329 
-5.270224 -252.137222 1599.671509 
-5.274310 -247.939743 1600.829834 
-5.289699 -244.257462 1605.438354 
-5.306682 -240.621826 1610.533813 
-5.317964 -236.704086 1613.890381 
-5.338137 -233.155975 1619.960327 
-5.370457 -230.094650 1629.736816 
-5.382468 -226.126251 1633.317627 
-5.390384 -221.969223 1635.650391 
-5.383640 -217.207581 1633.512451 
-5.369532 -212.166168 1629.129761 
-5.360250 -207.334900 1626.220459 
-5.353357 -202.609543 1624.041626 
-5.351299 -198.074631 1623.338867 
-5.350824 -193.600418 1623.120361 
-5.351120 -189.154266 1623.138428 
-5.351373 -184.706146 1623.144775 
-5.354843 -180.365906 1624.133179 
-5.355011 -175.911438 1624.116333 
-5.357581 -171.533615 1624.833252 
-5.361740 -167.201050 1626.036255 
-5.367491 -162.909866 1627.725708 
-5.369119 -158.487427 1628.160034 
-5.370705 -154.061035 1628.582642 
-5.369795 -149.562546 1628.246460 
-5.371293 -145.130585 1628.645264 
-5.371930 -140.673569 1628.783325 
-5.374156 -136.255814 1629.407715 
-5.377157 -131.853348 1630.269531 
-5.379298 -127.425468 1630.870605 
-5.379757 -122.955635 1630.961060 
-5.383445 -118.556122 1632.037109 
-5.385452 -114.114853 1632.602539 
-5.386597 -109.652679 1632.906738 
-5.390971 -105.251640 1634.196655 
-5.393663 -100.811905 1634.975952 
-5.394674 -96.337646 1635.244385 
-5.396458 -91.874870 1635.750366 
-5.398197 -87.408394 1636.244141 
-5.402349 -82.976074 1637.474854 
-5.404817 -78.512383 1638.194458 
-5.403142 -73.987846 1637.653076 
-5.409618 -69.570923 1639.597168 
-5.411130 -65.083511 1640.030518 
-5.412597 -60.593079 1640.451904 
-5.412377 -56.082718 1640.361328 
-5.417852 -51.627003 1642.007568 
-5.420002 -47.133228 1642.642090 
-5.424565 -42.654865 1644.014282 
-5.427443 -38.157047 1644.874512 
-5.431094 -33.659233 1645.972290 
-5.432238 -29.141884 1646.307983 
-5.433336 -24.622421 1646.631592 
-5.435208 -20.103992 1647.192749 
-5.438674 -15.587014 1648.241455 
-5.442914 -11.065835 1649.527710 
-5.445467 -6.535567 1650.301880 
-5.447973 -2.001031 1651.063477 
-5.451253 2.538040 1652.062744 
-5.452024 7.079317 1652.299683 
-5.453569 11.623528 1652.774048 
-5.455066 16.170172 1653.236084 
-5.461440 20.737823 1655.185303 
-5.462844 25.293083 1655.622437 
-5.469943 29.881796 1657.796631 
-5.470433 34.440723 1657.958862 
-5.470874 39.000122 1658.108398 
-5.477011 43.605598 1659.994995 
-5.479819 48.192028 1660.869263 
-5.482580 52.782673 1661.730835 
-5.482833 57.351685 1661.830444 
-5.484680 61.939117 1662.417236 
-5.486478 66.529030 1662.991211 
-5.488229 71.121353 1663.552856 
-5.489114 75.704628 1663.852173 
-5.490771 80.300659 1664.388550 
-5.495658 84.949409 1665.911255 
-5.496401 89.538773 1666.172852 
-5.501194 94.198708 1667.670044 
-5.500204 98.762810 1667.407349 
-5.506538 103.462868 1669.378052 
-5.507092 108.060059 1669.589233 
-5.512511 112.757675 1671.284790 
-5.520336 117.515564 1673.715454 
-5.581289 123.461685 1692.339722 
-5.864649 134.614380 1778.752197 
-6.114299 145.437256 1854.897095 
-6.118513 150.633514 1856.239990 
-6.126761 155.939468 1858.814331 
-6.115342 160.742218 1855.395874 
-6.089991 165.148132 1847.732178 
-6.068687 169.624954 1841.303589 
-6.048978 174.112183 1835.362183 
-5.999847 177.695206 1820.452881 
-5.915611 180.127457 1794.841064 
-5.843614 182.802246 1772.960449 
-5.776506 185.514130 1752.570923 
-5.749338 189.430161 1744.359131 
-5.694436 192.364044 1727.691284 
-5.650114 195.572723 1714.250122 
-5.600892 198.533844 1699.314697 
-5.564683 201.885117 1688.348267 
-5.528456 205.175415 1677.376709 
-5.512547 209.176300 1672.602417 
-5.486036 212.739517 1664.595093 
-5.466004 216.515289 1658.564697 
-5.445944 220.256561 1652.526611 
-5.425045 223.929733 1646.233154 
-5.391943 227.054291 1636.218018 
-5.360449 230.192749 1626.693481 
-5.326508 233.171570 1616.422241 
-5.281202 235.586960 1602.684204 
-5.252915 238.700195 1594.138306 
-0.831542 -525.429871 1520.311279 
-0.854404 -535.605835 1562.277344 
-0.863004 -536.684204 1578.016357 
-0.864266 -533.150269 1580.262207 
-0.864236 -528.812866 1580.130249 
-0.865106 -525.021729 1581.650146 
-0.865844 -521.142456 1582.925781 
-0.865155 -516.404480 1581.578125 
-0.865885 -512.513062 1582.836670 
-0.866612 -508.612488 1584.087402 
-0.866557 -504.249878 1583.900635 
-0.867017 -500.184631 1584.657959 
-0.867213 -495.964020 1584.929565 
-0.867405 -491.739014 1585.191895 
-0.867593 -487.509583 1585.444946 
-0.868166 -483.493378 1586.406372 
-0.869127 -479.685150 1588.077881 
-0.869693 -475.651459 1589.023071 
-0.870256 -471.610016 1589.960205 
-0.871075 -467.700989 1591.368652 
-0.872414 -464.059967 1593.729736 
-0.874142 -460.611023 1596.805542 
-0.876392 -457.416809 1600.837402 
-0.878116 -453.928284 1603.902466 
-0.880100 -450.555573 1607.443604 
-0.879981 -446.097351 1607.123779 
-0.879726 -441.571716 1606.552490 
-0.878283 -436.457947 1603.798096 
-0.874595 -430.254761 1596.924805 
-0.873924 -425.557556 1595.589844 
-0.873643 -421.054382 1594.968506 
-0.873223 -416.488403 1594.093994 
-0.873457 -412.234955 1594.418701 
-0.874082 -408.161835 1595.460571 
-0.874174 -403.836182 1595.524048 
-0.874128 -399.446655 1595.334473 
-0.874209 -395.114807 1595.377075 
-0.874681 -390.957214 1596.138062 
-0.875414 -386.909821 1597.375977 
-0.876009 -382.795013 1598.361572 
-0.876997 -378.844116 1600.068237 
-0.877848 -374.824738 1601.522705 
-0.878694 -370.794800 1602.968506 
-0.879402 -366.699005 1604.161743 
-0.880372 -362.703674 1605.833740 
-0.880538 -358.371704 1606.032471 
-0.881097 -354.196350 1606.953613 
-0.880453 -349.537079 1605.665771 
-0.880601 -345.195313 1605.832886 
-0.880877 -340.901306 1606.234131 
-0.881547 -336.755341 1607.359131 
-0.883147 -332.953156 1610.188599 
-0.883540 -328.685913 1610.805420 
-0.884596 -324.657928 1612.637451 
-0.885780 -320.666107 1614.705933 
-0.886826 -316.612823 1616.520020 
-0.886928 -312.217072 1616.606567 
-0.887158 -307.864655 1616.927734 
-0.887651 -303.599579 1617.729614 
-0.888003 -299.282318 1618.275391 
-0.887812 -294.781158 1617.826538 
-0.886136 -289.796417 1614.659058 
-0.883511 -284.522736 1609.753906 
-0.882625 -279.826630 1608.035400 
-0.879444 -274.423187 1602.114380 
-0.878138 -269.627258 1599.628906 
-0.877498 -265.045380 1598.363281 
-0.877658 -260.707916 1598.566162 
-0.877678 -256.327515 1598.510986 
-0.878634 -252.216095 1600.173584 
-0.879585 -248.093430 1601.826294 
-0.881340 -244.184097 1604.952271 
-0.884036 -240.512970 1609.800171 
-0.887402 -236.994202 1615.877808 
-0.889954 -233.228149 1620.463501 
-0.894664 -229.991699 1629.002563 
-0.897072 -226.127548 1633.325928 
-0.897850 -221.836792 1634.668091 
-0.896996 -217.143295 1633.025146 
-0.894509 -212.071045 1628.394287 
-0.893233 -207.304657 1625.980713 
-0.892356 -202.641525 1624.298218 
-0.891741 -198.045670 1623.098999 
-0.891934 -193.631042 1623.377197 
-0.892119 -189.212921 1623.643433 
-0.891889 -184.707230 1623.153076 
-0.892060 -180.284607 1623.396118 
-0.891952 -175.805359 1623.130371 
-0.892516 -171.456284 1624.095703 
-0.892937 -167.074860 1624.801270 
-0.893896 -162.787003 1626.490356 
-0.894303 -158.391983 1627.172974 
-0.894159 -153.897995 1626.848633 
-0.894552 -149.495193 1627.508057 
-0.894529 -145.021072 1627.408691 
-0.894907 -140.610214 1628.044678 
-0.895550 -136.235886 1629.167114 
-0.896051 -131.834076 1630.028931 
-0.896407 -127.406860 1630.629883 
-0.896620 -122.956360 1630.969482 
-0.896962 -118.520798 1631.546753 
-0.896751 -114.011482 1631.114624 
-0.897351 -109.603333 1632.166748 
-0.897943 -105.188339 1633.207275 
-0.898801 -100.797211 1634.735107 
-0.898970 -96.323601 1635.003418 
-0.899404 -91.875412 1635.758789 
-0.899557 -87.395653 1636.003052 
-0.899430 -82.888474 1635.735718 
-0.900114 -78.453331 1636.954346 
-0.900108 -73.954620 1636.912476 
-0.900777 -69.508080 1638.107178 
-0.901302 -65.044456 1639.039917 
-0.901410 -60.547546 1639.211426 
-0.902057 -56.083057 1640.369995 
-0.902559 -51.603863 1641.266602 
-0.903054 -47.119244 1642.151001 
-0.903131 -42.609970 1642.273560 
-0.903611 -38.116905 1643.133667 
-0.904629 -33.639099 1644.981201 
-0.904957 -29.128855 1645.566772 
-0.905550 -24.622570 1646.640259 
-0.905999 -20.107147 1647.451416 
-0.906576 -15.589460 1648.500122 
-0.907420 -11.069239 1650.036377 
-0.907298 -6.533637 1649.810547 
-0.907853 -2.000742 1650.822266 
-0.908126 2.536909 1651.321411 
-0.908528 7.078294 1652.058350 
-0.908648 11.620098 1652.282593 
-0.908898 16.165405 1652.744751 
-0.909550 20.722372 1653.944214 
-0.909921 25.278042 1654.631226 
-0.910147 29.832676 1655.055786 
-0.911323 34.425438 1657.217773 
-0.912216 39.017906 1658.866943 
-0.912282 43.579735 1659.004028 
-0.912614 48.156250 1659.628540 
-0.913757 52.782982 1661.739624 
-0.913799 57.352032 1661.839111 
-0.913834 61.920971 1661.926270 
-0.914270 66.519493 1662.750244 
-0.914699 71.121780 1663.561646 
-0.914846 75.705078 1663.860962 
-0.915259 80.313126 1664.647095 
-0.915664 84.924583 1665.420654 
-0.916334 89.566002 1666.680908 
-0.916723 94.185249 1667.429199 
-0.917377 98.836929 1668.663818 
-0.917204 103.401932 1668.388672 
-0.917570 108.028580 1669.099121 
-0.918200 112.691399 1670.295776 
-0.919504 117.446564 1672.726440 
-0.929527 123.371933 1691.102051 
-0.976753 134.521317 1777.515015 
-1.020270 145.613190 1857.150024 
-1.021517 150.896057 1859.489136 
-1.024253 156.418854 1864.553955 
-1.022076 161.194214 1860.636108 
-1.016762 165.437103 1850.979126 
-1.012394 169.785751 1843.055908 
-1.009653 174.371719 1838.109619 
-0.997791 177.309464 1816.480835 
-0.983753 179.731003 1790.870239 
-0.973249 182.675735 1771.726318 
-0.962745 185.515228 1752.580078 
-0.957402 189.270157 1742.876953 
-0.947165 191.979797 1724.221436 
-0.941408 195.517456 1713.762085 
-0.932390 198.304077 1697.336792 
-0.927169 201.827209 1687.860352 
-0.923166 205.569183 1680.611450 
-0.917938 208.992325 1671.122437 
-0.914604 212.803848 1665.099609 
-0.911265 216.580933 1659.068970 
-0.907380 220.192108 1652.039429 
-0.902950 223.629379 1644.012207 
-0.898651 227.055634 1636.226318 
-0.890832 229.531998 1621.998291 
-0.887880 233.208420 1616.678101 
-0.881140 235.841507 1604.423950 
-0.875210 238.627884 1593.651855 
-0.870088 241.579514 1584.359985 
3.386402 -534.934753 1547.970459 
3.437235 -538.670410 1571.266113 
3.448982 -536.202515 1576.592529 
3.451967 -532.353882 1577.889038 
3.450810 -527.864380 1577.280640 
3.455833 -524.315247 1579.510498 
3.453610 -519.663269 1578.408325 
3.456539 -515.785645 1579.672852 
3.461009 -512.128723 1581.643555 
3.464432 -508.307129 1583.131592 
3.465250 -504.097839 1583.420654 
3.466569 -499.958923 1583.939209 
3.466313 -495.591522 1583.732788 
3.466038 -491.221954 1583.516357 
3.465224 -486.777374 1583.050903 
3.468036 -482.839661 1584.249878 
3.471875 -479.036774 1585.919678 
3.476745 -475.365082 1588.061401 
3.478992 -471.326019 1588.997803 
3.483836 -467.629822 1591.125366 
3.488668 -463.919891 1593.246216 
3.497674 -460.747833 1597.282715 
3.505103 -457.347412 1600.593628 
3.513572 -454.062775 1604.380493 
3.519933 -450.487427 1607.199585 
3.518935 -445.963318 1606.638672 
3.517388 -441.372925 1605.825562 
3.507406 -435.738403 1601.140259 
3.494756 -429.800842 1595.231079 
3.492597 -425.171967 1594.136719 
3.489360 -420.418579 1592.546997 
3.489260 -416.047302 1592.396973 
3.491249 -411.922760 1593.204834 
3.493219 -407.791046 1594.003662 
3.496226 -403.774261 1595.278198 
3.498158 -399.626984 1596.058838 
3.497953 -395.233490 1595.859131 
3.499844 -391.074677 1596.620605 
3.503304 -387.084595 1598.101807 
3.507807 -383.199677 1600.060547 
3.509108 -378.957886 1600.551514 
3.514636 -375.163879 1602.980225 
3.516960 -371.018127 1603.939575 
3.520326 -366.975281 1605.377319 
3.521545 -362.702789 1605.830322 
3.522742 -358.425049 1606.273193 
3.523383 -354.088409 1606.461670 
3.522402 -349.589203 1605.906738 
3.522995 -345.246765 1606.074097 
3.525166 -341.055420 1606.964478 
3.528917 -337.009521 1608.579346 
3.533716 -333.053070 1610.674927 
3.538496 -329.082916 1612.761841 
3.542722 -325.049866 1614.595093 
3.545321 -320.859100 1615.683472 
3.548433 -316.707642 1617.007446 
3.550451 -312.452118 1617.830444 
3.550838 -308.049988 1617.906738 
3.552272 -303.736450 1618.463379 
3.553681 -299.417267 1619.009644 
3.553992 -295.003357 1619.053101 
3.546753 -289.971436 1615.640015 
3.536254 -284.695190 1610.735352 
3.535939 -280.252319 1610.495361 
3.521604 -274.716431 1603.836182 
3.516919 -269.957275 1601.597900 
3.512204 -265.207458 1599.346558 
3.512309 -260.827332 1599.302856 
3.513465 -256.523773 1599.742065 
3.515675 -252.292923 1600.664063 
3.519479 -248.168945 1602.317017 
3.525960 -244.220871 1605.195923 
3.539443 -240.732880 1611.280518 
3.553452 -237.246216 1617.605835 
3.560415 -233.263016 1620.707520 
3.581421 -230.164948 1630.236816 
3.586723 -226.024689 1632.579468 
3.588751 -221.668991 1633.425659 
3.581545 -216.749390 1630.047485 
3.574304 -211.845703 1626.655273 
3.569197 -207.083984 1624.241089 
3.566227 -202.456299 1622.806030 
3.565397 -197.954819 1622.350952 
3.566707 -193.571625 1622.876953 
3.567991 -189.183716 1623.391602 
3.567617 -184.706757 1623.149536 
3.567214 -180.229279 1622.895630 
3.566780 -175.751358 1622.629761 
3.570668 -171.481964 1624.340698 
3.570721 -167.023560 1624.300171 
3.574554 -162.737045 1625.989136 
3.575094 -158.295227 1626.174072 
3.577238 -153.921036 1627.093994 
3.576632 -149.426559 1626.757446 
3.575450 -144.910324 1626.159790 
3.576963 -140.502853 1626.795532 
3.580081 -136.152664 1628.166870 
3.580991 -131.713455 1628.530029 
3.584052 -127.348404 1629.878418 
3.588176 -123.012138 1631.713867 
3.590089 -118.592560 1632.540649 
3.587063 -114.011200 1631.111084 
3.590008 -109.619728 1632.412720 
3.590195 -105.140121 1632.455200 
3.592535 -100.720421 1633.483643 
3.594300 -96.279465 1634.250977 
3.595489 -91.819397 1634.756836 
3.597741 -87.382156 1635.749634 
3.595592 -82.837914 1634.733276 
3.599423 -78.429321 1636.451294 
3.600491 -73.954430 1636.908691 
3.600982 -69.465744 1637.104248 
3.603629 -65.014702 1638.286865 
3.605700 -60.547386 1639.207642 
