ply
format ascii 1.0
comment Exported by SUIT
obj_info Generated by CloudCompare!
element vertex 1336
property float x
property float y
property float z
end_header
-170.794800 159.202179 1586.577026 
-170.795517 163.557541 1586.641724 
-170.794876 167.911591 1586.695068 
-170.766403 172.237549 1586.489868 
-170.789490 176.615356 1586.767456 
-170.864075 181.048904 1587.527466 
-170.805115 185.341370 1587.041260 
-170.797638 189.688004 1587.037354 
-170.788879 194.032791 1587.022461 
-170.778748 198.375519 1586.996094 
-170.793701 202.747528 1587.205322 
-170.886444 207.214615 1588.142456 
-170.898651 211.586731 1588.328491 
-171.014999 216.091049 1589.488647 
-171.050858 220.497574 1589.897949 
-171.217056 225.077225 1591.526611 
-171.302841 229.557617 1592.404785 
-171.360886 234.004532 1593.024902 
-171.417618 238.452515 1593.633545 
-171.446686 242.864227 1593.984863 
-171.448135 247.237625 1594.079102 
-171.500824 251.686264 1594.653076 
-171.499680 256.057220 1594.724731 
-171.628464 260.625427 1596.012207 
-171.860794 265.360077 1598.268799 
-172.012985 269.980804 1599.776978 
-171.980240 274.314270 1599.557007 
-171.710526 278.262054 1597.121582 
-171.754028 282.711700 1597.615723 
-171.639191 286.898895 1596.630127 
-171.732483 291.433380 1597.591431 
-171.772171 295.880310 1598.052246 
-171.888916 300.463989 1599.234619 
-171.899887 304.865997 1599.428101 
-172.066208 309.548035 1601.075562 
-172.152847 314.093201 1601.978394 
-172.055740 318.302795 1601.162109 
-172.035645 322.651978 1601.067383 
-172.014404 326.997894 1600.962036 
-171.939926 331.240173 1600.359009 
-172.098419 335.933441 1601.936401 
-172.229568 340.580627 1603.258423 
-172.151550 344.815643 1602.623291 
-172.228226 349.360413 1603.436279 
-172.225800 353.746643 1603.508911 
-172.222244 358.130371 1603.571167 
-172.217514 362.511505 1603.622925 
-172.211655 366.889923 1603.663818 
-172.334045 371.544617 1604.905884 
-172.222397 375.694977 1603.956543 
-172.342407 380.350861 1605.176147 
-172.306137 384.664032 1604.932739 
-172.346237 389.147827 1605.404297 
-172.307816 393.454315 1605.140137 
-172.397232 398.053955 1606.073242 
-172.356644 402.354675 1605.788330 
-172.675400 407.501465 1608.869629 
-174.021576 415.115295 1621.575928 
-180.891541 436.115173 1686.033691 
-187.211319 456.124817 1745.343628 
-191.493088 471.439392 1785.564453 
-193.561600 481.467072 1805.050659 
-191.499176 481.219543 1785.828003 
-191.026627 484.902618 1781.502075 
-189.785782 486.591675 1769.974609 
-188.110855 487.093475 1754.376465 
-186.539581 487.780914 1739.747314 
-184.892944 488.189240 1724.409302 
-182.966980 487.769073 1706.450562 
-181.629425 488.834106 1694.004639 
-179.910645 488.795349 1677.982788 
-178.371704 489.162079 1663.644165 
-176.961380 489.806305 1650.508667 
-175.272659 489.600952 1634.760498 
-174.271408 491.247375 1625.455811 
-172.712418 491.256409 1610.918945 
-171.408569 491.918091 1598.772095 
-170.308594 493.103668 1588.534912 
-169.184158 494.161591 1578.066040 
-168.364243 496.059418 1570.450684 
-167.671204 498.292511 1564.023315 
-162.567047 2.377670 1548.358154 
-165.109741 6.734776 1572.713379 
-165.729935 11.096217 1578.656738 
-165.128601 15.376365 1572.902344 
-164.603790 19.634176 1567.882446 
-164.233353 23.886978 1564.342896 
-163.965439 28.137985 1561.786743 
-163.955688 32.426041 1561.704956 
-164.074326 36.742329 1562.854614 
-164.295395 41.090443 1564.986816 
-164.566925 45.464069 1567.604370 
-164.888931 49.867165 1570.706909 
-165.961853 54.533863 1581.003784 
-166.514359 59.072079 1586.317627 
-167.324692 63.737423 1594.103149 
-167.977859 68.381187 1600.384766 
-168.733154 73.103371 1607.646729 
-169.279419 77.769043 1612.908203 
-169.176025 82.147850 1611.947998 
-168.241837 86.096100 1603.030640 
-167.669357 90.190025 1597.579834 
-167.484360 94.472572 1595.842285 
-167.246201 98.714043 1593.596924 
-166.929077 102.894379 1590.596558 
-166.817856 107.190430 1589.570313 
-166.782959 111.531700 1589.276733 
-166.772614 115.888199 1589.219971 
-166.657333 120.168526 1588.159424 
-166.670151 124.538506 1588.327515 
-166.603973 128.848053 1587.740356 
-166.562317 133.173767 1587.389648 
-166.441803 137.432190 1586.284424 
-166.423340 141.771210 1586.158813 
-166.351883 146.062775 1585.526611 
-166.304947 150.372742 1585.130737 
-166.282516 154.703049 1584.971191 
-166.258728 159.030899 1584.799927 
-166.207825 163.330872 1584.370361 
-166.233047 167.704941 1584.671387 
-166.256882 172.078949 1584.960815 
-166.305191 176.480133 1585.485962 
-166.326340 180.854324 1585.752319 
-166.320404 185.199448 1585.760010 
-166.287399 189.513443 1585.509644 
-166.304565 193.884216 1585.741699 
-166.371948 198.315689 1586.456055 
-166.463654 202.780350 1587.405151 
-166.528290 207.216125 1588.095825 
-166.565857 211.620850 1588.528076 
-166.653503 216.092514 1589.442017 
-166.688400 220.499008 1589.851074 
-166.773361 224.974823 1590.741333 
-166.831284 229.417908 1591.373535 
-166.990494 234.005981 1592.978394 
-167.071350 238.490555 1593.832764 
-167.074005 242.865601 1593.937988 
-167.049728 247.201004 1593.786133 
-167.152267 251.726120 1594.851563 
-167.176666 256.136871 1595.168457 
-167.302139 260.706390 1596.456055 
-167.400650 265.239746 1597.485840 
-167.421173 269.652618 1597.768066 
-167.389297 273.980896 1597.548706 
-167.330719 278.263000 1597.073608 
-167.194382 282.410767 1595.853149 
-167.210022 286.812073 1596.091797 
-167.249939 291.256409 1596.564087 
-167.314072 295.745728 1597.269653 
-167.402405 300.281738 1598.208130 
-167.463989 304.773712 1598.890503 
-167.549728 309.313507 1599.805542 
-167.608780 313.807831 1600.464966 
-167.539536 318.061676 1599.892944 
-167.545349 322.456360 1600.042358 
-167.550018 326.849121 1600.180908 
-167.502762 331.139404 1599.821411 
-167.555801 335.628265 1600.425537 
-167.658310 340.220184 1601.504883 
-167.683594 344.658722 1601.843018 
-167.657059 348.990784 1601.683960 
-167.604172 353.265839 1601.271606 
-167.626022 357.697662 1601.577515 
-167.520432 361.855316 1600.659302 
-167.641052 366.502014 1601.914429 
-167.709946 371.040588 1602.672729 
-167.828094 375.692993 1603.904419 
-167.844177 380.120483 1604.155640 
-167.808823 384.430939 1603.912231 
-167.923401 389.086975 1605.109741 
-167.785294 393.156891 1603.878662 
-167.771927 397.515106 1603.846436 
-167.832870 402.050659 1604.527954 
-168.294128 407.558899 1609.057617 
-169.681473 415.358185 1622.489990 
-175.175232 433.389404 1675.401123 
-179.408188 448.555908 1716.196533 
-182.658188 461.460602 1747.545410 
-184.277206 470.372223 1763.214844 
-184.268692 475.171783 1763.235352 
-183.734772 478.602173 1758.202759 
-182.951065 481.347382 1750.766479 
-181.145279 481.335785 1733.498901 
-180.188110 483.506866 1724.390625 
-179.007294 485.021881 1713.129395 
-177.926727 486.749329 1702.830322 
-176.573349 487.666779 1689.905029 
-175.245911 488.585754 1677.226685 
-173.820251 489.158783 1663.600952 
-172.346207 489.519836 1649.507324 
-170.972626 490.091705 1636.377808 
-169.352692 489.879181 1620.875122 
-168.229141 491.030640 1610.146484 
-166.735703 491.033997 1595.855957 
-165.614243 492.064423 1585.142334 
-164.987305 494.518433 1579.186035 
-163.941299 495.672577 1569.194336 
-163.167175 497.601166 1561.817139 
-159.702057 2.398556 1561.973389 
-161.470871 6.763400 1579.371338 
-161.240479 11.085836 1577.108887 
-160.376511 15.335311 1568.616943 
-159.890579 19.584663 1563.844482 
-159.681473 23.849253 1561.796265 
-159.445770 28.097918 1559.488159 
-159.436279 32.379864 1559.406494 
-159.551895 36.690060 1560.556641 
-159.716660 41.019096 1562.192383 
-160.082275 45.413967 1565.804932 
-160.471786 49.835899 1569.654297 
-161.289536 54.423256 1577.717041 
-161.903534 58.980339 1583.778076 
-162.743484 63.658794 1592.063232 
-163.278702 68.255005 1597.352783 
-163.686096 72.823097 1601.386719 
-163.864700 77.305153 1603.172241 
-163.259048 81.405754 1597.244995 
-162.803711 85.552803 1592.797729 
-162.650146 89.842064 1591.320190 
-162.671921 94.224632 1591.569214 
-162.490479 98.485207 1589.820557 
-162.282516 102.719238 1587.812744 
-162.098526 106.957916 1586.041870 
-162.089783 111.307068 1585.996948 
-162.079742 115.654800 1585.940552 
-161.917114 119.889023 1584.384399 
-161.879227 124.210228 1584.057129 
-161.840057 128.528351 1583.718384 
-161.749176 132.801926 1582.872681 
-161.682205 137.090912 1582.263550 
-161.739853 141.485291 1582.882080 
-161.670273 145.768066 1582.250122 
-161.624619 150.069305 1581.854858 
-161.703445 154.487030 1582.686157 
-161.630035 158.759445 1582.020508 
-161.630768 163.102753 1582.086060 
-161.605118 167.418732 1581.893066 
-161.628387 171.785355 1582.183105 
-161.675476 176.179199 1582.708984 
-161.746353 180.602081 1583.470215 
-161.715515 184.912506 1583.231567 
-161.708496 189.249146 1583.228638 
-161.700195 193.583862 1583.214355 
-161.740768 197.977982 1583.682495 
-161.830200 202.435349 1584.632690 
-161.893204 206.863815 1585.324219 
-161.929871 211.261292 1585.757568 
-161.990265 215.692291 1586.425903 
-162.049377 220.124817 1587.082397 
-162.082169 224.524063 1587.480957 
-162.163666 228.993835 1588.360474 
-162.268845 233.502121 1589.474487 
-162.347748 237.977463 1590.330322 
-162.325424 242.305969 1590.190552 
-162.326859 246.669388 1590.285767 
-162.376984 251.108185 1590.861328 
-162.351013 255.429947 1590.688477 
-162.473389 259.987701 1591.977905 
-162.519684 264.428253 1592.518921 
-162.539841 268.828033 1592.802979 
-162.583679 273.268707 1593.321289 
-162.551620 277.582123 1593.092651 
-162.443832 281.762512 1592.118530 
-162.533752 286.285278 1593.093384 
-162.523041 290.632996 1593.077271 
-162.560822 295.068115 1593.539673 
-162.671783 299.640076 1594.724487 
-162.756714 304.169312 1595.652832 
-162.766022 308.559814 1595.836670 
-162.848450 313.091339 1596.741943 
-162.830658 317.431915 1596.659546 
-162.811707 321.769287 1596.566406 
-162.791641 326.103394 1596.462646 
-162.819901 330.534515 1596.835815 
-162.871674 335.015533 1597.441284 
-162.996307 339.651215 1598.765747 
-163.218353 344.499084 1601.051270 
-163.143188 348.723663 1600.406006 
-163.140945 353.101990 1600.480103 
-163.112961 357.423828 1600.300415 
-163.059296 361.687225 1599.867676 
-163.103012 366.166321 1600.395630 
-163.145584 370.645111 1600.912354 
-163.162460 375.067230 1601.175781 
-163.227325 379.601776 1601.912598 
-163.291061 384.137177 1602.638428 
-163.304626 388.556641 1602.869019 
-163.317108 392.974243 1603.089111 
-163.377502 397.509033 1603.781616 
-163.363388 401.863831 1603.738892 
-164.032669 407.917389 1610.441162 
-166.092224 417.501495 1630.867920 
-170.100555 432.147278 1670.534668 
-172.028915 441.668304 1689.671509 
-173.661011 450.524323 1705.885132 
-175.752487 460.672180 1726.635620 
-175.722458 465.314728 1726.440063 
-175.813019 470.278046 1727.434448 
-175.659363 474.586548 1726.016846 
-174.970657 477.426788 1719.313965 
-174.039261 479.561310 1710.212891 
-173.253738 482.051697 1702.550659 
-172.274582 483.955933 1692.974121 
-171.295914 485.808868 1683.400513 
-170.148407 487.125854 1672.157104 
-169.098434 488.663025 1661.874634 
-167.904175 489.722961 1650.164917 
-166.324677 489.584717 1634.646606 
-165.687347 492.160339 1628.434570 
-163.965652 491.451538 1611.506104 
-162.486633 491.383972 1596.972534 
-161.225647 491.902252 1584.591064 
-160.494690 493.984100 1577.445313 
-159.740067 495.953278 1570.063477 
-159.081848 498.183807 1563.632446 
-156.318741 2.412597 1571.106812 
-157.178955 6.765496 1579.801880 
-156.585419 11.063183 1573.807007 
-155.941360 15.323133 1567.303223 
-155.345276 19.553553 1561.285645 
-155.117111 23.807529 1558.988037 
-155.010727 28.070961 1557.923096 
-155.026108 32.353928 1558.090088 
-155.040192 36.637440 1558.245850 
-155.151398 40.947361 1559.384644 
-155.482712 45.327595 1562.749878 
-155.984909 49.780655 1567.843750 
-156.682480 54.329197 1574.914185 
-157.329422 58.897289 1581.474365 
-158.097855 63.549953 1589.264648 
-158.545074 68.107056 1593.810059 
-158.523682 72.474609 1593.620605 
-158.378036 76.780754 1592.177002 
-158.108185 81.015205 1589.479492 
-157.787964 85.207565 1586.274292 
-157.613953 89.465233 1584.548706 
-157.438705 93.712555 1582.812012 
-157.385025 98.025909 1582.305664 
-157.305527 102.319504 1581.539795 
-157.322968 106.674454 1581.755493 
-157.339096 111.029427 1581.959229 
-157.255722 115.312340 1581.159058 
-157.171127 119.589714 1580.347656 
-157.232452 123.977478 1581.013184 
-157.218857 128.307480 1580.922729 
-157.130447 132.573624 1580.077393 
-157.040787 136.833786 1579.220703 
-156.998932 141.131943 1578.848633 
-156.955780 145.426620 1578.465088 
-156.886902 149.694366 1577.822754 
-156.963730 154.101334 1578.655273 
-156.867859 158.338257 1577.742798 
-156.917648 162.720901 1578.304321 
-156.892715 167.026779 1578.111938 
-156.842087 171.303207 1577.661133 
-156.888031 175.684982 1578.187988 
-156.932724 180.067841 1578.703735 
-156.951675 184.422928 1578.960327 
-156.944931 188.748184 1578.958496 
-156.985809 193.131653 1579.439453 
-156.952194 197.423630 1579.168091 
-157.039352 201.869019 1580.119751 
-157.100800 206.285507 1580.812744 
-157.112244 210.638306 1581.000732 
-157.195557 215.090057 1581.917358 
-157.277588 219.544678 1582.822021 
-157.333954 223.967270 1583.468384 
-157.437759 228.461761 1584.595703 
-157.588928 233.032059 1586.203613 
-157.690109 237.535431 1587.306763 
-157.668472 241.855972 1587.167847 
-157.694260 246.249390 1587.510010 
-157.743088 250.680847 1588.086548 
-157.717880 254.995316 1587.914551 
-157.788559 259.466003 1588.713989 
-157.833755 263.898010 1589.256348 
-157.829224 268.248047 1589.296387 
-157.847763 272.637604 1589.570557 
-157.913544 277.111145 1590.324219 
-157.857117 281.370483 1589.840942 
-157.944687 285.887329 1590.816772 
-157.958496 290.273468 1591.046265 
-157.922836 294.568085 1590.775391 
-157.982651 299.041504 1591.472412 
-157.993011 303.423157 1591.668945 
-157.978088 307.756226 1591.609985 
-158.058502 312.276764 1592.517456 
-158.113632 316.751099 1593.169189 
-158.119370 321.128204 1593.321411 
-158.099991 325.453888 1593.219238 
-158.151657 329.926697 1593.837402 
-158.178131 334.349182 1594.200928 
-158.227509 338.822113 1594.796753 
-158.299759 343.347351 1595.624756 
-158.394806 347.926727 1596.684326 
-158.440735 352.402069 1597.246338 
-158.389648 356.661530 1596.825317 
-158.385452 361.025024 1596.879639 
-158.452057 365.551575 1597.651611 
-158.493576 370.023254 1598.169678 
-158.581818 374.607635 1599.161621 
-158.788345 379.479584 1601.352905 
-158.921951 384.186615 1602.805054 
-158.911224 388.548126 1602.793457 
-158.899475 392.906525 1602.771606 
-158.839066 397.142578 1602.255981 
-158.896790 401.674011 1602.938354 
-159.714783 408.151398 1611.331909 
-161.790695 417.923370 1632.486328 
-165.311996 431.583466 1668.305420 
-165.907074 437.717621 1674.441895 
-166.073242 442.741180 1676.227051 
-167.044205 449.941742 1686.177856 
-167.065155 454.610809 1686.489380 
-167.889969 461.490570 1694.957642 
-167.837265 465.979584 1694.521362 
-167.996445 471.059784 1696.234375 
-168.107147 476.011536 1697.454834 
-167.603012 479.211487 1692.434448 
-166.839264 481.634094 1684.777466 
-166.405624 484.976654 1680.469604 
-165.171082 485.938904 1668.029907 
-164.313980 487.953949 1659.419922 
-163.057571 488.724731 1646.753784 
-161.637756 488.931915 1632.426514 
-160.665359 490.426422 1622.638916 
-159.482452 491.218933 1610.712158 
-158.159973 491.512299 1597.365356 
-156.862167 491.809937 1584.266602 
-156.197433 494.038269 1577.594482 
-155.416016 495.857758 1569.735352 
-154.401474 496.883820 1559.506226 
-150.083069 -1.879265 1551.118652 
-152.812653 2.425487 1579.486938 
-152.763397 6.762237 1578.976807 
-151.994522 11.043904 1570.989624 
-151.296249 15.289042 1563.737427 
-150.931931 19.537756 1559.958008 
-150.781845 23.799597 1558.406494 
-150.678375 28.061594 1557.341064 
-150.669403 32.338001 1557.259644 
-150.659134 36.613583 1557.166260 
-150.839111 40.940212 1559.051880 
-151.041718 45.283852 1561.174194 
-151.601974 49.756374 1567.015625 
-152.208694 54.277294 1573.341797 
-152.933655 58.878170 1580.898560 
-153.609314 63.499840 1587.944824 
-153.829041 67.958466 1590.254028 
-153.784332 72.305229 1589.816284 
-153.618774 76.589211 1588.124023 
-153.332458 80.800156 1585.177856 
-153.044922 84.994171 1582.220703 
-152.851837 89.226974 1580.246582 
-152.824799 93.550476 1580.000610 
-152.700958 97.810425 1578.749512 
-152.647552 102.110458 1578.232056 
-152.569000 106.389923 1577.454956 
-152.513138 110.681381 1576.914917 
-152.503738 115.004738 1576.859985 
-152.469238 119.307899 1576.545288 
-152.600540 123.743546 1577.955933 
-152.491959 127.985313 1576.873901 
-152.286789 132.137131 1574.789063 
-152.247360 136.425797 1574.428955 
-152.206711 140.711105 1574.057739 
-152.236359 145.061066 1574.418701 
-152.240906 149.388107 1574.520386 
-152.387146 153.858444 1576.096680 
-152.365387 158.162704 1575.927490 
-152.175766 162.286728 1574.013916 
-152.151627 166.581161 1573.822632 
-152.268997 171.033142 1575.104370 
-152.289978 175.380798 1575.384888 
-152.452347 179.896469 1577.137695 
-152.565826 184.362320 1578.383423 
-152.535522 188.656769 1578.134521 
-152.504028 192.947983 1577.874512 
-152.447601 197.205139 1577.356445 
-152.532394 201.645798 1578.308716 
-152.568497 206.025528 1578.755615 
-152.603348 210.405594 1579.190918 
-152.613312 214.752563 1579.368164 
-152.693146 219.200485 1580.273682 
-152.677002 223.512375 1580.181763 
-152.730713 227.927612 1580.817749 
-152.735870 232.272064 1580.949585 
-152.739853 236.614960 1581.070190 
-152.766312 240.993561 1581.425659 
-152.815216 245.409729 1582.015869 
-153.028244 250.096909 1584.315796 
-152.956635 254.322861 1583.653442 
-153.096313 258.902100 1585.191650 
-153.140350 263.324799 1585.735229 
-153.088928 267.583160 1585.285767 
-153.059982 271.878540 1585.071045 
-153.124100 276.340179 1585.826294 
-153.092911 280.630798 1585.589844 
-153.178268 285.136566 1586.567627 
-153.191864 289.511566 1586.799072 
-153.180817 293.840088 1586.774658 
-153.168701 298.165863 1586.739502 
-153.155472 302.488800 1586.693359 
-153.235031 306.996857 1587.614502 
-153.196152 311.268768 1587.302368 
-153.296844 315.826050 1588.444946 
-153.302658 320.190887 1588.599487 
-153.401016 324.751953 1589.718994 
-153.404602 329.115295 1589.851196 
-153.453888 333.578156 1590.460205 
-153.525436 338.092865 1591.301514 
-153.595856 342.609039 1592.131226 
-153.711792 347.232178 1593.436157 
-153.779907 351.752411 1594.242798 
-153.753616 356.057953 1594.066040 
-153.749680 360.414368 1594.121826 
-153.814529 364.933746 1594.895386 
-153.878281 369.454193 1595.657471 
-153.917694 373.919159 1596.165894 
-154.072235 378.669250 1597.874756 
-154.202332 383.367371 1599.328857 
-154.284866 387.953308 1600.287231 
-154.343063 392.482025 1600.991821 
-154.423416 397.071014 1601.927246 
-154.433182 401.481049 1602.126465 
-155.367599 408.321808 1611.970581 
-157.409744 418.158203 1633.370972 
-160.626541 431.264404 1667.027954 
-160.651123 435.891937 1667.384399 
-161.090057 441.656799 1672.063599 
-161.181488 446.483978 1673.116943 
-161.363983 451.571289 1675.120117 
-161.453140 456.405121 1676.149048 
-161.610229 461.437866 1677.886230 
-161.812103 466.608673 1680.090332 
-161.782990 471.118408 1679.883301 
-161.615234 475.218750 1678.228271 
-161.469757 479.375763 1676.804688 
-160.865128 482.148315 1670.587036 
-160.168884 484.609283 1663.411499 
-159.335495 486.611938 1654.802368 
-158.205246 487.652161 1643.091431 
-157.144394 488.844116 1632.103149 
-156.563843 491.483612 1626.127808 
-155.162048 491.488708 1611.574829 
-153.670425 491.127167 1596.081177 
-152.954819 493.183136 1588.689087 
-151.807159 493.792938 1576.782227 
-151.024384 495.534912 1568.684326 
-150.310272 497.459717 1561.301147 
-146.630081 -1.889714 1559.733154 
-148.352051 2.423538 1578.152100 
-148.048218 6.745139 1574.903931 
-147.347519 11.019301 1567.412476 
-146.808517 15.269327 1561.652222 
-146.477707 19.515589 1558.120483 
-146.331848 23.772562 1556.568604 
-146.277817 28.038609 1556.000732 
-146.292374 32.316650 1556.168091 
-146.328918 36.601048 1556.572632 
-146.527084 40.932724 1558.707397 
-146.817017 45.304302 1561.825562 
-146.942871 49.637398 1563.190063 
-147.718597 54.216370 1571.508423 
-148.562683 58.867767 1580.559570 
-149.335587 63.538212 1588.851318 
-149.502625 67.978348 1590.663452 
-149.296448 72.247643 1588.484863 
-149.042572 76.480408 1585.797607 
-148.810791 80.710335 1583.348145 
-148.647552 84.965858 1581.633301 
-148.506332 89.225105 1580.155884 
-148.456833 93.533867 1579.661133 
-148.336441 97.793007 1578.409668 
-148.261307 102.076256 1577.643555 
-148.184967 106.354263 1576.866333 
-148.153839 110.661583 1576.574463 
-148.075104 114.930115 1575.774658 
-148.064774 119.249153 1575.708130 
-148.099609 123.605286 1576.126587 
-148.040466 127.882248 1575.540894 
-147.933792 132.113297 1574.447632 
-147.895462 136.401199 1574.087769 
-147.832779 140.663635 1573.468384 
-147.792068 144.944000 1573.085693 
-147.819672 149.290955 1573.435303 
-147.846054 153.638229 1573.773438 
-147.824921 157.936325 1573.604370 
-147.825760 162.257294 1573.672119 
-147.825409 166.576920 1573.728027 
-147.846985 170.921936 1574.020264 
-147.821121 175.211960 1573.806152 
-147.886520 179.611313 1574.570068 
-147.881409 183.926788 1574.580566 
-147.875122 188.240509 1574.579834 
-147.867661 192.552292 1574.567749 
-147.882126 196.892822 1574.791504 
-147.872330 201.201218 1574.756958 
-147.930542 205.603546 1575.451660 
-147.964523 209.974869 1575.888062 
-148.135513 214.546646 1577.793213 
-148.121017 218.854370 1577.713013 
-148.082352 223.124802 1577.375122 
-148.249634 227.709290 1579.244019 
-148.185699 231.941696 1578.637451 
-148.166626 236.241852 1578.512573 
-148.146454 240.539093 1578.376587 
-148.239990 245.023148 1579.460083 
-148.263443 249.394791 1579.793823 
-148.262833 253.726578 1579.870361 
-148.352829 258.216095 1580.918945 
-148.281174 262.424713 1580.236328 
-148.345932 266.874634 1581.016235 
-148.295059 271.116852 1580.557739 
-148.357544 275.566681 1581.315186 
-148.304520 279.802277 1580.835205 
-148.387619 284.295532 1581.815063 
-148.378174 288.613617 1581.803467 
-148.367645 292.929047 1581.781128 
-148.356064 297.241730 1581.748291 
-148.434662 301.737061 1582.682861 
-148.466522 306.140656 1583.116821 
-148.406113 310.353088 1582.562378 
-148.572510 315.042969 1584.439941 
-148.623825 319.495148 1585.084473 
-148.742325 324.096710 1586.449829 
-148.836868 328.652344 1587.559082 
-148.953018 333.261841 1588.900391 
-148.931717 337.566559 1588.767822 
-149.000198 342.076172 1589.598999 
-149.090302 346.640045 1590.662109 
-149.111252 351.046387 1590.983765 
-149.153824 355.505493 1591.537720 
-149.172699 359.909882 1591.837524 
-149.213165 364.368164 1592.369507 
-149.207382 368.714447 1592.405029 
-149.268417 373.227539 1593.157715 
-149.463867 378.084106 1595.353027 
-149.545258 382.660339 1596.324463 
-149.603027 387.180176 1597.042480 
-149.704819 391.818573 1598.232788 
-149.783005 396.400452 1599.169922 
-149.815094 400.863617 1599.612183 
-150.768265 407.820099 1609.942627 
-152.910278 418.082794 1633.038086 
-155.924194 430.880035 1665.497559 
-156.194962 436.192902 1668.505371 
-156.240112 440.885071 1669.090576 
-156.373917 445.832458 1670.627197 
-156.551376 450.913483 1672.632202 
-156.682861 455.871094 1674.143311 
-156.589600 460.175903 1673.240112 
-156.473236 464.406738 1672.087769 
-156.289139 468.427734 1670.206909 
-156.238266 472.841156 1669.756348 
-156.164261 477.181000 1669.056519 
-155.978104 481.170441 1667.150635 
-155.412949 483.968719 1661.171265 
-154.781036 486.524261 1654.473389 
-153.660309 487.492035 1642.520752 
-152.740341 489.037109 1632.723389 
-151.621292 489.885162 1620.784180 
-150.614014 491.032227 1610.043945 
-149.319550 491.175751 1596.214600 
-148.203445 491.835480 1584.299805 
-147.375870 493.395966 1575.483887 
-146.615173 495.133911 1567.384766 
-146.009521 497.355591 1560.950195 
-142.722229 -1.894753 1563.859009 
-143.784225 2.419666 1575.560303 
-143.443985 6.732216 1571.813232 
-142.876587 11.006781 1565.564941 
-142.353180 15.251897 1559.803223 
-142.054550 19.496349 1556.519653 
-141.958115 23.756657 1555.465210 
-141.905640 28.019840 1554.897461 
-141.919754 32.295017 1555.064697 
-142.000443 36.588200 1555.967163 
-142.215454 40.924889 1558.351318 
-142.406647 45.266956 1560.474854 
-142.732086 49.667244 1564.079224 
-143.327286 54.189121 1570.657715 
-144.237213 58.875309 1580.706543 
-144.897400 63.506813 1588.005005 
-144.969315 67.902534 1588.822876 
-144.927124 72.245682 1588.384766 
-144.658035 76.466362 1585.448242 
-144.478058 80.720650 1583.495239 
-144.342087 84.989990 1582.028564 
-144.182388 89.236465 1580.302124 
-144.134293 93.545753 1579.807007 
-143.949738 97.759468 1577.809570 
-143.854218 102.025223 1576.794922 
-143.825165 106.334366 1576.514404 
-143.727325 110.588860 1575.477295 
-143.673416 114.872528 1574.925659 
-143.685898 119.208084 1575.107422 
-143.674667 123.523979 1575.029419 
-143.662262 127.838165 1574.940186 
-143.581177 132.088409 1574.094849 
-143.543930 136.375443 1573.734619 
-143.483032 140.637024 1573.114868 
-143.398544 144.871109 1572.236328 
-143.425323 149.215881 1572.586182 
-143.383484 153.488815 1572.180786 
-143.407944 157.832184 1572.507813 
-143.431213 162.175690 1572.823120 
-143.430878 166.493179 1572.879272 
-143.429352 170.809265 1572.923950 
-143.336929 175.014252 1571.967529 
-143.378021 179.380692 1572.484741 
-143.395508 183.719391 1572.742920 
-143.389435 188.028259 1572.742676 
-143.449448 192.425385 1573.472412 
-143.485886 196.793793 1573.943481 
-143.453964 201.068588 1573.661865 
-143.488113 205.436096 1574.110229 
-143.498749 209.771225 1574.300171 
-143.508224 214.105255 1574.478760 
-143.628387 218.608368 1575.879517 
-143.680267 223.012711 1576.528198 
-143.708679 227.383057 1576.919067 
-143.668961 231.645279 1576.559326 
-143.695114 236.013290 1576.927490 
-143.675537 240.306366 1576.791992 
-143.744095 244.748352 1577.630127 
-143.856064 249.269684 1578.948364 
-143.900009 253.677856 1579.516846 
-143.920563 258.046661 1579.828247 
-143.895523 262.333649 1579.637085 
-143.891632 266.658325 1579.680542 
-143.819977 270.855133 1578.976685 
-143.858475 275.258362 1579.489380 
-143.807022 279.489136 1579.009766 
-143.932144 284.065277 1580.480835 
-143.945175 288.424347 1580.714722 
-144.023651 292.917358 1581.672241 
-144.056686 297.321198 1582.128418 
-143.955704 301.446472 1581.105591 
-143.986664 305.845947 1581.540283 
-144.016556 310.244934 1581.963745 
-144.178116 314.933319 1583.842041 
-144.205826 319.335083 1584.242554 
-144.320847 323.934509 1585.608276 
-144.324326 328.287079 1585.742188 
-144.370941 332.739319 1586.353271 
-144.328308 336.985931 1585.978394 
-144.416946 341.540466 1587.054443 
-144.570587 346.255981 1588.848877 
-144.502914 350.444061 1588.198364 
-144.478363 354.733948 1588.024536 
-144.562790 359.293213 1589.055298 
-144.646133 363.854767 1590.074097 
-144.640579 368.195068 1590.110718 
-144.699905 372.702240 1590.864624 
-144.714340 377.095917 1591.122437 
-144.815475 381.718994 1592.338623 
-144.981232 386.520508 1594.269409 
-145.014511 390.974792 1594.735596 
-145.265518 396.024597 1597.609009 
-145.231171 400.303040 1597.327271 
-146.244141 407.497742 1608.627441 
-148.411362 418.004333 1632.694092 
-151.228775 430.492249 1663.954834 
-151.600677 436.114777 1668.169312 
-151.470291 440.299561 1666.827637 
-151.774368 445.752441 1670.291504 
-151.729156 450.187439 1669.891357 
-151.791779 454.942780 1670.683228 
-151.766510 459.435913 1670.502563 
-151.740417 463.924896 1670.311646 
-151.648392 468.208893 1669.390869 
-151.490662 472.282349 1667.741821 
-151.440521 476.685120 1667.282349 
-151.259796 480.669830 1665.377197 
-150.775925 483.671173 1660.115112 
-150.119141 486.083435 1652.937866 
-149.505707 488.597961 1646.238647 
-148.267090 489.013458 1632.616943 
-147.632874 491.366150 1625.683716 
-146.180756 490.933746 1609.693604 
-145.203415 492.022675 1598.957153 
-144.162415 492.835083 1587.513184 
-143.294098 494.180420 1577.979248 
-142.469376 495.625122 1568.925659 
-141.731018 497.323212 1560.826172 
-135.435364 -6.057655 1529.862061 
-138.702911 -1.898579 1566.979370 
-139.338577 2.417675 1574.200684 
-138.964661 6.724535 1569.954712 
-138.392258 10.992418 1563.455933 
-137.950241 15.239172 1558.439697 
-137.770126 19.495546 1556.400513 
-137.588882 23.740545 1554.349854 
-137.603760 28.014219 1554.528931 
-137.639359 32.293678 1554.945190 
-137.739548 36.592510 1556.096924 
-137.948151 40.929722 1558.481689 
-138.243164 45.308208 1561.850098 
-138.361694 49.641682 1563.215210 
-139.070572 54.212650 1571.288696 
-139.756180 58.817841 1579.100098 
-140.265244 63.385799 1584.907227 
-140.532104 67.868401 1587.964600 
-140.578766 72.254372 1588.521729 
-140.273911 76.451675 1585.086914 
-140.143097 80.730316 1583.631104 
-139.901703 84.933693 1580.920288 
-139.746780 89.177261 1579.193359 
-139.700119 93.483665 1578.698364 
-139.521057 97.694458 1576.700317 
-139.472168 101.989311 1576.182861 
-139.334641 106.213593 1574.659912 
-139.305313 110.515160 1574.368042 
-139.253006 114.795952 1573.816284 
-139.265106 119.128616 1573.998291 
-139.319763 123.499733 1574.665283 
-139.285889 127.793015 1574.327515 
-139.229034 132.062424 1573.730347 
-139.192902 136.348572 1573.369995 
-139.112000 140.587234 1572.502197 
-139.051804 144.842468 1571.871216 
-139.012329 149.116196 1571.477295 
-139.037186 153.458435 1571.815552 
-139.039078 157.776199 1571.894775 
-138.996262 162.041931 1571.466797 
-139.017700 166.381927 1571.770874 
-138.972687 170.641647 1571.320679 
-138.948349 174.924606 1571.106812 
-138.966446 179.260773 1571.376831 
-138.896393 183.481644 1570.645630 
-138.934006 187.843750 1571.140259 
-138.948792 192.176575 1571.376343 
-139.005890 196.570190 1572.095093 
-139.040131 200.934296 1572.555054 
-138.964691 205.138626 1571.768799 
-138.996750 209.500290 1572.206421 
-139.114487 213.995758 1573.619629 
-139.100906 218.292435 1573.540405 
-139.303070 222.933533 1575.916504 
-139.308929 227.266937 1576.060669 
-139.357025 231.670975 1576.686768 
-139.317398 235.929382 1576.315796 
-139.255112 240.146240 1575.687744 
-139.256729 244.471436 1575.787842 
-139.278900 248.833450 1576.122681 
-139.364838 253.312775 1577.184326 
-139.384811 257.675476 1577.496338 
-139.382141 261.996887 1577.551758 
-139.464783 266.481079 1578.578491 
-139.373703 270.633118 1577.629272 
-139.497299 275.202942 1579.124023 
-139.425781 279.389557 1578.398926 
-139.547165 283.964203 1579.870361 
-139.538223 288.277161 1579.859253 
-139.571365 292.677795 1580.327271 
-139.495880 296.849335 1579.559814 
-139.526947 301.246246 1580.005981 
-139.578461 305.689880 1580.685669 
-139.564529 309.991333 1580.620605 
-139.742706 314.724579 1582.743774 
-139.726715 319.025574 1582.656494 
-139.859756 323.670471 1584.267090 
-139.777496 327.818665 1583.425781 
-139.908401 332.468353 1585.013062 
-139.888428 336.762909 1584.882324 
-139.974426 341.314636 1585.958984 
-140.016632 345.763550 1586.536865 
-140.121918 350.372742 1587.833862 
-140.162064 354.823669 1588.389404 
-140.158554 359.165253 1588.447510 
-140.196762 363.614716 1588.980957 
-140.170090 367.896301 1588.775391 
-140.185104 372.286926 1589.044678 
-140.199158 376.675934 1589.303345 
-140.297318 381.294373 1590.520752 
-140.458145 386.091187 1592.452515 
-140.575394 390.776825 1593.887817 
-140.691605 395.466827 1595.311035 
-140.764359 400.040497 1596.238892 
-141.725876 407.172150 1607.300293 
-143.870697 417.799713 1631.855835 
-146.646225 430.411652 1663.606445 
-147.049255 436.158783 1668.303955 
-146.943817 440.407043 1667.202515 
-147.006470 445.157806 1668.018188 
-147.110367 450.038666 1669.303345 
-147.255371 455.052917 1671.057251 
-147.083359 459.086700 1669.193970 
-147.058029 463.572235 1669.003662 
-147.010849 467.986542 1668.563232 
-146.941879 472.327972 1667.873169 
-146.872177 476.662720 1667.173828 
-146.654800 480.509338 1664.788940 
-146.269211 483.785950 1660.482666 
-145.736725 486.548401 1654.499023 
-145.183319 489.207123 1648.274780 
-143.835083 489.128601 1632.976929 
-143.073441 490.979462 1624.371704 
-141.581192 490.253174 1607.425171 
-140.445343 490.679413 1594.543945 
-139.665039 492.288239 1585.718872 
-138.760254 493.406128 1575.470337 
-138.147644 495.515717 1568.555420 
-137.410522 497.136932 1560.216797 
-132.539429 -6.118132 1545.169189 
-134.643982 -1.902091 1569.840576 
-134.898865 2.415661 1572.828979 
-134.451477 6.714671 1567.585571 
-134.024200 10.986667 1562.579712 
-133.553284 15.226314 1557.064331 
-133.399979 19.482174 1555.273682 
-133.224319 23.724230 1553.222778 
-133.238708 27.994963 1553.401611 
-133.273224 32.271492 1553.818115 
-133.391586 36.573223 1555.219116 
-133.572479 40.901688 1557.355225 
-133.773483 45.248543 1559.728760 
-133.973328 49.607838 1562.090332 
-134.724060 54.201576 1570.912476 
-135.282394 58.759842 1577.480835 
-135.818253 63.343395 1583.787476 
-136.034439 67.801956 1586.347900 
-136.143341 72.217453 1587.651855 
-135.911514 76.448273 1584.962646 
-135.763519 80.714073 1583.257568 
-135.678070 85.009583 1582.287476 
-135.506638 89.243004 1580.311035 
-135.334167 93.464714 1578.323730 
-135.245422 97.735878 1577.319824 
-135.134399 101.984543 1576.056152 
-135.001083 106.208565 1574.532593 
-135.015030 110.544609 1574.737549 
-134.900757 114.772461 1573.440308 
-134.976028 119.160332 1574.367432 
-134.944275 123.455093 1574.041016 
-134.932587 127.766838 1573.951416 
-134.835129 131.993881 1572.857544 
-134.842422 136.320572 1572.993652 
-134.806290 140.602432 1572.621826 
-134.769089 144.880829 1572.238647 
-134.688522 149.108826 1571.348267 
-134.712585 153.450836 1571.686768 
-134.735535 157.793091 1572.013550 
-134.694016 162.059265 1571.585449 
-134.651413 166.321426 1571.146118 
-134.671097 170.659805 1571.438721 
-134.605270 174.888351 1570.729492 
-134.622803 179.223618 1570.999634 
-134.618134 183.529770 1571.010620 
-134.654556 187.892960 1571.505005 
-134.605606 192.136612 1570.998901 
-134.639893 196.498611 1571.470703 
-134.609894 200.766937 1571.189331 
-134.642014 205.127960 1571.638306 
-134.673065 209.489365 1572.075806 
-134.745071 213.917801 1572.995483 
-134.668839 218.110764 1572.176025 
-134.801743 222.644257 1573.812866 
-134.849457 227.042847 1574.450928 
-134.875122 231.406662 1574.831055 
-134.836746 235.660202 1574.460571 
-134.818359 239.946808 1574.325562 
-134.798950 244.230423 1574.179565 
-134.883331 248.704178 1575.253540 
-134.987564 253.220581 1576.561401 
-135.069733 257.701508 1577.611328 
-135.108948 262.104431 1578.157715 
-135.000717 266.219086 1576.973145 
-135.037918 270.618256 1577.497681 
-135.094971 275.060211 1578.256226 
-135.088318 279.374084 1578.267334 
-135.122421 283.773132 1578.757935 
-135.155518 288.172211 1579.237427 
-135.125031 292.435822 1578.970581 
-135.114410 296.741119 1578.938110 
-135.186172 301.229248 1579.873901 
-135.194412 305.578461 1580.064209 
-135.201675 309.925934 1580.243530 
-135.207993 314.271606 1580.412109 
-135.317245 318.860382 1581.791382 
-135.466965 323.552704 1583.646606 
-135.407959 327.749420 1583.049194 
-135.410339 332.092926 1583.173584 
-135.473969 336.588745 1584.018555 
-135.536591 341.086090 1584.851929 
-135.577515 345.532196 1585.430542 
-135.638123 350.031677 1586.241211 
-135.718430 354.586548 1587.283813 
-135.694382 358.870575 1587.099487 
-135.793411 363.482452 1588.362427 
-135.746902 367.706421 1587.913940 
-135.782043 372.151306 1588.426270 
-135.836884 376.652985 1589.170044 
-135.828949 380.982147 1589.175537 
-135.881912 385.483582 1589.897583 
-135.975067 390.103668 1591.092285 
-136.046661 394.667236 1592.033447 
-136.199493 399.473602 1593.930420 
-137.254639 406.965179 1606.445068 
-139.579529 418.329803 1633.903320 
-141.920776 429.892975 1661.557373 
-142.536789 436.325012 1668.909302 
-142.516418 440.827942 1668.771118 
-142.536057 445.454742 1669.103760 
-142.616180 450.273712 1670.147583 
-142.674896 455.029572 1670.938965 
-142.589767 459.325806 1670.036499 
-142.605896 463.946014 1670.325684 
-142.539658 468.296539 1669.643921 
-142.493011 472.707947 1669.192383 
-142.506714 477.318542 1669.450317 
-142.234833 480.964233 1666.344482 
-141.840637 484.174957 1661.796875 
-141.222900 486.590240 1654.614868 
-140.442993 488.401978 1645.521118 
-139.764893 490.521118 1637.624634 
-138.479401 490.445557 1622.570801 
-137.195160 490.292175 1607.529419 
-136.094254 490.717560 1594.645020 
-135.398590 492.546478 1586.532104 
-134.824448 494.776917 1579.849243 
-133.746155 495.104156 1567.223755 
-132.930969 496.344849 1557.696167 
-128.797958 -6.142291 1551.253296 
-130.712158 -1.907691 1574.435425 
-130.526932 2.414769 1572.192383 
-130.052628 6.710053 1566.449463 
-129.494934 10.966882 1559.698486 
-129.141861 15.210898 1555.427612 
-128.911148 19.450006 1552.640015 
-128.864487 23.707705 1552.083252 
-128.878448 27.975471 1552.262451 
-128.932434 32.254177 1552.928101 
-129.005859 36.541969 1553.831299 
-129.160477 40.860298 1555.719116 
-129.313980 45.188473 1557.595093 
-129.569138 49.565693 1560.704224 
-130.028732 54.044781 1566.291260 
-130.713272 58.655216 1574.604736 
-131.417068 63.320251 1583.153442 
-131.564728 67.745499 1584.967651 
-131.731796 72.191162 1587.018677 
-131.568985 76.456184 1585.075439 
-131.425674 80.722397 1583.369873 
-131.301849 84.991737 1581.901855 
-131.135880 89.224220 1579.925171 
-130.948334 93.430321 1577.688477 
-130.821350 97.669220 1576.187012 
-130.734390 101.930908 1575.171753 
-130.605301 106.152634 1573.647949 
-130.598297 110.469055 1573.604492 
-130.569702 114.766014 1573.300903 
-130.560547 119.078850 1573.234497 
-130.550308 123.390038 1573.156616 
-130.600479 127.759644 1573.812134 
-130.485611 131.965683 1572.469604 
-130.472168 136.270035 1572.357300 
-130.457672 140.572342 1572.233521 
-130.401184 144.827072 1571.602417 
-130.364090 149.100266 1571.208008 
-130.407822 153.466064 1571.794312 
-130.389099 157.759247 1571.625244 
-130.328400 161.998993 1570.948853 
-130.266754 166.233475 1570.261963 
-130.265350 170.542801 1570.307007 
-130.242477 174.823212 1570.092896 
-130.239014 179.128784 1570.115479 
-130.214081 183.403885 1569.879150 
-130.228943 187.734741 1570.126465 
-130.181580 191.974777 1569.620605 
-130.296326 196.456131 1571.081665 
-130.246887 200.692047 1570.553101 
-130.257614 205.019424 1570.755127 
-130.267288 209.345810 1570.945923 
-130.296280 213.704544 1571.372070 
-130.242844 217.927261 1570.799683 
-130.391876 222.491898 1572.683838 
-130.438095 226.887573 1573.322388 
-130.483261 231.284470 1573.949341 
-130.466461 235.572403 1573.825439 
-130.468918 239.894699 1573.936646 
-130.389236 244.063385 1573.052124 
-130.450638 248.495544 1573.880127 
-130.511002 252.929764 1574.696533 
-130.529785 257.286041 1575.009521 
-130.567810 261.682068 1575.557007 
-130.645355 266.161163 1576.584717 
-130.640854 270.475525 1576.617920 
-130.675858 274.872711 1577.131470 
-130.689636 279.226837 1577.388062 
-130.763092 283.711304 1578.369507 
-130.714294 287.931396 1577.868286 
-130.765549 292.371948 1578.582153 
-130.795609 296.767822 1579.039429 
-130.804535 301.117004 1579.240967 
-130.913269 305.699890 1580.654663 
-130.960526 310.144348 1581.322876 
-131.006805 314.589569 1581.979492 
-130.991730 318.888519 1581.891846 
-131.076294 323.432343 1583.014771 
-131.059372 327.727905 1582.905396 
-131.041534 332.020142 1582.785767 
-131.042892 336.360413 1582.899414 
-131.063385 340.750519 1583.245972 
-131.082993 345.139618 1583.581665 
-131.302017 350.061737 1586.340698 
-131.259583 354.292603 1585.923706 
-131.376404 358.955780 1587.441650 
-131.372208 363.292053 1587.489502 
-131.407104 367.737427 1588.012573 
-131.441071 372.182526 1588.524536 
-131.414261 376.455719 1588.297974 
-131.446487 380.898224 1588.788696 
-131.517639 385.457001 1589.752930 
-131.607803 390.076721 1590.947754 
-131.637268 394.520569 1591.405151 
-131.765305 399.265045 1593.060547 
-132.846497 406.937744 1606.303101 
-135.752869 420.333313 1641.736816 
-137.304474 429.681580 1660.702759 
-138.158768 436.927368 1671.192139 
-138.079330 441.245819 1670.328735 
-137.999207 445.556793 1669.456055 
-138.116272 450.505737 1670.980835 
-138.153214 455.198334 1671.531128 
-138.070679 459.495880 1670.627686 
-138.046722 463.984711 1670.435791 
-138.021973 468.469299 1670.233521 
-137.976746 472.882080 1669.781372 
-138.048981 477.698425 1670.757690 
-137.805313 481.415924 1667.889648 
-137.384155 484.491272 1662.860962 
-136.844910 487.118408 1656.393799 
-136.187881 489.286743 1648.491943 
-135.295609 490.558594 1637.725220 
-133.874451 489.836304 1620.519897 
-132.885925 490.617188 1608.577026 
-131.780792 490.898285 1595.212402 
-130.891922 491.918976 1584.477417 
-130.101532 493.254181 1574.938965 
-129.331299 494.614197 1565.643311 
-128.873932 497.130096 1560.154053 
-124.862984 -6.158560 1555.335327 
-126.336235 -1.906971 1573.787354 
-126.157112 2.413856 1571.543945 
-125.539238 6.699007 1563.806152 
-125.039658 10.952224 1557.552124 
-124.737999 15.195351 1553.778564 
-124.554657 19.436289 1551.489014 
-124.509537 23.690979 1550.932251 
-124.483238 27.946802 1550.613037 
-124.555328 32.226284 1551.527954 
-124.626373 36.510395 1552.431396 
-124.736130 40.812031 1553.821289 
-124.924347 45.149544 1556.196045 
-125.171135 49.523109 1559.306030 
-125.675285 54.024200 1565.641602 
-126.118607 58.531586 1571.217285 
-126.839058 63.207409 1580.266357 
-127.101143 67.688454 1583.575195 
-127.262749 72.130478 1585.626831 
-127.145027 76.415688 1584.181030 
-127.006416 80.679581 1582.475220 
-126.866791 84.933289 1580.757935 
-126.746002 89.190712 1579.278564 
-126.604332 93.424446 1577.538940 
-126.441811 97.632385 1575.539551 
-126.357704 101.892433 1574.524170 
-126.272560 106.145844 1573.497314 
-126.245926 110.444626 1573.205322 
-126.238075 114.758644 1573.150146 
-126.229202 119.071167 1573.083740 
-126.179626 123.343300 1572.508545 
-126.208321 127.691231 1572.916016 
-126.097252 131.894928 1571.573242 
-126.123863 136.239761 1571.957642 
-126.030609 140.452805 1570.840942 
-126.114563 144.863037 1571.946777 
-126.039070 149.090424 1571.055908 
-126.022003 153.383713 1570.898315 
-126.023674 157.699295 1570.977173 
-125.984756 161.962830 1570.548828 
-125.944855 166.222382 1570.109253 
-125.963264 170.558167 1570.402100 
-125.901604 174.784073 1569.692505 
-125.917984 179.116745 1569.962646 
-125.854355 183.333984 1569.230957 
-125.848991 187.633743 1569.230957 
-125.882080 191.991791 1569.714355 
-125.874702 196.288986 1569.691772 
-125.886055 200.615540 1569.905151 
-125.856987 204.877075 1569.613037 
-125.886063 209.233246 1570.051147 
-125.894409 213.556244 1570.230591 
-125.901779 217.878143 1570.398926 
-126.006569 222.372452 1571.790039 
-126.070923 226.801163 1572.675415 
-126.114594 231.196442 1573.302612 
-126.098297 235.482666 1573.178711 
-126.081062 239.765976 1573.043579 
-126.043243 244.008286 1572.651611 
-125.984879 248.207520 1572.002563 
-126.121742 252.794083 1573.804199 
-126.061478 256.988159 1573.133301 
-126.176697 261.541809 1574.665161 
-126.192902 265.894775 1574.955811 
-126.266907 270.372559 1575.972412 
-126.300735 274.768036 1576.485840 
-126.333603 279.163757 1576.988281 
-126.326424 283.471802 1576.988647 
-126.318344 287.777252 1576.978271 
-126.309303 292.080017 1576.956787 
-126.377457 296.563232 1577.904907 
-126.405586 300.955902 1578.351318 
-126.491264 305.489471 1579.521118 
-126.478531 309.787842 1579.455688 
-126.601196 314.421600 1581.091309 
-126.606094 318.767273 1581.248291 
-126.707306 323.359039 1582.615601 
-126.729774 327.754089 1582.994629 
-126.712486 332.046539 1582.874634 
-126.694328 336.335480 1582.744141 
-126.694725 340.673035 1582.846924 
-126.674858 344.955505 1582.695557 
-126.731667 349.447968 1583.507690 
-126.865005 354.157959 1585.281738 
-126.919907 358.655457 1586.070557 
-126.954544 363.098755 1586.605103 
-127.026947 367.653717 1587.614258 
-126.982521 371.871552 1587.155518 
-127.033836 376.369934 1587.899902 
-127.007080 380.637878 1587.663208 
-127.056641 385.135376 1588.385742 
-127.143845 389.751556 1589.581421 
-127.210869 394.311188 1590.523315 
-127.411659 399.294617 1593.146973 
-128.495667 407.089996 1606.875366 
-131.536880 421.227173 1645.214111 
-132.998795 430.461090 1663.698853 
-133.671265 437.212860 1672.258057 
-133.805237 442.230957 1674.045532 
-133.727432 446.551056 1673.169800 
-133.668091 450.928162 1672.525391 
-133.837585 456.080902 1674.758667 
-133.623718 459.925842 1672.169434 
-133.562195 464.285583 1671.495728 
-133.538132 468.772736 1671.292358 
-133.513336 473.255646 1671.079102 
-133.449692 477.597748 1670.375977 
-133.290161 481.589050 1668.465698 
-132.825668 484.457245 1662.717041 
-132.171066 486.593597 1654.573975 
-131.402710 488.262543 1644.997803 
-130.464005 489.240051 1633.275513 
-129.526062 490.156281 1621.560425 
-128.285675 489.853302 1606.036011 
-127.538948 491.367371 1596.722656 
-126.660248 492.317383 1585.746094 
-125.725586 492.987793 1574.062378 
-125.018463 494.494202 1565.240967 
-124.292961 495.878967 1556.185913 
-120.750824 -6.166934 1557.413208 
-121.885704 -1.905034 1572.130493 
-121.770317 2.412541 1570.634155 
-121.211884 6.697456 1563.393311 
-120.671654 10.944440 1556.390381 
-120.380257 15.184515 1552.616089 
-120.299232 19.437929 1551.572144 
-120.217201 23.685400 1550.516602 
-120.191795 27.940218 1550.197388 
-120.223015 32.208412 1550.614258 
-120.310860 36.495991 1551.767090 
-120.359238 40.776424 1552.409790 
-120.598679 45.131786 1555.532349 
-120.894699 49.527309 1559.390625 
-121.285660 53.986065 1564.481812 
-121.713928 58.490467 1570.058838 
-122.409874 63.163345 1579.109863 
-122.701447 67.662575 1582.917480 
-122.857521 72.102943 1584.969482 
-122.743828 76.386497 1583.523682 
-122.648315 80.673935 1582.315186 
-122.513420 84.927322 1580.597656 
-122.339180 89.142471 1578.371094 
-122.125595 93.315201 1575.635864 
-122.026161 97.564064 1574.382935 
-121.925728 101.805031 1573.118408 
-121.843498 106.054749 1572.091675 
-121.836922 110.367172 1572.048340 
-121.771873 114.624062 1571.247559 
-121.859100 119.025085 1572.423950 
-121.772896 123.256752 1571.351807 
-121.762344 127.561546 1571.262573 
-121.731621 131.843781 1570.913452 
-121.719070 136.144135 1570.801147 
-121.705498 140.442429 1570.677490 
-121.729210 144.784103 1571.038940 
-121.713669 149.079376 1570.892456 
-121.716240 153.396378 1570.982544 
-121.717850 157.712311 1571.061401 
-121.737549 162.052460 1571.376709 
-121.603470 166.183838 1569.697388 
-121.640335 170.545395 1570.238037 
-121.599831 174.798309 1569.775757 
-121.615623 179.131302 1570.045898 
-121.515991 183.291321 1568.818604 
-121.548920 187.648911 1569.313721 
-121.561821 191.977219 1569.549805 
-121.592758 196.335541 1570.021729 
-121.565605 200.600204 1569.740356 
-121.518471 204.829269 1569.200684 
-121.527489 209.151657 1569.391724 
-121.497520 213.406143 1569.077271 
-121.561691 217.827271 1569.986694 
-121.586845 222.181595 1570.390503 
-121.630028 226.571320 1571.029785 
-121.729225 231.070450 1572.397583 
-121.713493 235.354309 1572.273682 
-121.658890 239.560547 1571.646118 
-121.622383 243.799164 1571.254150 
-121.622864 248.110703 1571.344238 
-121.660324 252.499023 1571.915405 
-121.658989 256.808044 1571.983276 
-121.789207 261.399353 1573.761719 
-121.842705 265.832550 1574.544189 
-121.876343 270.225433 1575.069458 
-121.984634 274.788910 1576.565918 
-121.997444 279.141632 1576.822510 
-122.009377 283.493103 1577.068115 
-121.982635 287.754303 1576.812134 
-122.011612 292.147003 1577.281006 
-122.020828 296.493683 1577.493652 
-122.029152 300.838867 1577.695435 
-122.093063 305.323639 1578.620605 
-122.156052 309.810608 1579.534302 
