ply
format ascii 1.0
comment Created by Open3D
element vertex 1980
property double x
property double y
property double z
end_header
374.755 -228.349 592.426
374.758 117.245 577.146
374.759 -36.1614 550.362
374.762 -8.60632 566.144
374.763 338.612 854.396
374.763 179.215 593.729
374.763 131.974 593.567
374.765 -16.9446 582.309
374.766 -327.975 712.293
374.766 -46.3878 542.646
374.767 -10.2314 568.798
374.769 -7.02471 566.161
374.775 237.758 517.022
374.775 365.931 725.348
374.776 -231.869 545.12
374.778 -306.908 639.891
374.778 101.039 609.573
374.781 -310.878 614.364
374.782 7.30417 574.191
374.785 0.884265 566.193
374.786 -51.4959 513.73
374.788 235.588 550.252
374.791 30.518 590.62
374.792 55.0008 518.303
374.795 -3.87778 568.858
374.797 -51.4411 530.307
374.798 -51.6472 532.728
374.801 -315.984 638.643
374.803 2.48724 571.541
374.804 -0.703567 571.545
374.805 -269.433 559.758
374.808 183.433 1053.82
374.812 341.639 837.48
374.812 -20.2808 585.134
374.815 -60.3558 544.901
374.816 -226.712 592.698
374.82 28.6246 585.081
374.822 100.595 606.665
374.823 29.5241 605.063
374.824 238.61 527.686
374.824 0.939929 605.186
374.825 -285.465 611.378
374.832 -302.279 651.646
374.833 229.671 556.802
374.834 -27.8277 571.455
374.835 -57.0652 542.507
374.837 -309.477 611.22
374.841 -291.856 631.263
374.846 171.685 597.38
374.846 116.663 582.915
374.847 104.259 597.739
374.857 -45.2429 547.823
374.861 128.64 585.232
374.862 -331.121 729.602
374.863 -339.797 765.688
374.864 -274.952 577.312
374.865 202.2 574.312
374.866 370.217 702.719
374.868 -320.158 656.884
374.871 -305.649 655.027
374.873 -64.7487 557.665
374.873 -11.9756 577.026
374.879 103.231 612.691
374.881 129.212 588.099
374.881 -274.199 571.262
374.885 376.107 655.669
374.886 -20.3734 588.04
374.886 359.51 749.462
374.887 53.7602 520.824
374.889 374.219 684.945
374.89 42.3288 525.841
374.891 328.447 922.015
374.895 -41.8306 542.923
374.896 378.01 659.384
374.896 -97.6807 838.438
374.901 -43.7113 547.916
374.902 -23.5467 585.253
374.904 -50.9781 542.753
374.906 125.917 579.772
374.906 -106.89 838.422
374.907 -306.352 647.55
374.908 5.72843 577.098
374.915 237.591 504.171
374.915 -52.0803 537.784
374.917 194.955 577.974
374.924 216.096 555.78
374.924 -26.9266 588.052
374.927 -5.4683 569.058
374.927 -25.0699 582.51
374.929 4.10149 574.425
374.931 4.06672 569.067
374.932 -37.8775 553.145
374.942 -300.529 652.073
374.942 -28.0749 577.025
374.943 -69.4757 860.069
374.943 -36.6318 558.33
374.943 -42.1791 548.006
374.946 -306.552 625.866
374.947 199.098 580.572
374.951 -23.4478 582.561
374.952 206.063 565.436
374.955 381.839 658.773
374.958 169.143 600.741
374.96 202.995 571.495
374.961 -27.9562 574.343
374.964 -306.731 643.919
374.966 104.758 600.845
374.967 -27.4089 599.496
374.971 198.244 577.762
374.971 192.559 581.19
374.972 -60.8786 550.186
374.974 -293.358 634.857
374.98 -43.9005 550.565
374.991 43.8228 525.955
374.994 -25.7436 599.552
374.994 -52.5151 542.851
374.996 241.331 522.109
374.998 -22.0176 588.207
374.998 -280.827 595.77
374.998 350.129 789.689
375.004 -350.021 784.677
375.004 -109.22 838.632
375.007 331.953 903.078
375.007 122.703 580.085
375.007 -28.3231 582.608
375.009 196.634 577.971
375.009 241.235 530.28
375.01 104.025 606.868
375.011 -56.8608 540.283
375.015 357.343 759.485
375.016 -261.601 505.063
375.022 51.0379 523.454
375.024 235.512 536.665
375.024 10.382 566.541
375.025 -11.9292 574.553
375.028 -259.443 492.372
375.028 237.471 541.927
375.029 -62.9501 555.354
375.033 -39.4378 553.272
375.033 -87.2765 849.387
375.035 -26.7012 582.666
375.036 335.508 878.556
375.04 -30.749 599.585
375.042 225.662 554.797
375.043 -65.0494 560.528
375.045 -22.7958 985.436
375.046 -286.963 614.949
375.047 162.454 601.3
375.047 4.12041 577.319
375.047 46.7949 525.97
375.047 -28.204 579.92
375.048 -44.0902 553.217
375.049 -15.3333 582.765
375.051 2.51027 577.326
375.053 364.104 730.711
375.053 -18.5016 580.005
375.059 -263.272 512.861
375.061 325.048 942.358
375.062 56.0676 513.988
375.063 -40.8224 550.742
375.063 -13.7097 582.796
375.069 210.039 562.353
375.07 -29.0839 599.649
375.072 -284.336 608.607
375.073 40.8666 526.132
375.075 -45.4556 550.678
375.075 -69.3563 571.103
375.077 -263.447 521.053
375.078 159.062 1172.27
375.078 355.058 769.531
375.088 115.107 583.366
375.09 224.108 555.069
375.091 -42.5448 553.307
375.091 -44.9028 543.154
375.092 45.3175 526.067
375.093 -55.1308 537.971
375.099 -111.55 838.837
375.1 193.733 1062.91
375.102 361.959 740.283
375.103 119.486 580.385
375.103 -313.503 628.681
375.105 30.6782 593.956
375.105 174.375 594.632
375.106 -273.921 574.767
375.109 -268.498 557.422
375.113 127.088 585.708
375.116 -35.0852 558.614
375.117 -36.8811 931.587
375.118 -26.8233 585.569
375.119 -53.8388 540.514
375.125 -44.7249 540.72
375.125 -259.061 495.197
375.129 235.215 553.685
375.132 241.857 527.641
375.134 -42.0282 545.773
375.136 239.612 509.347
375.138 28.5247 582.812
375.139 -171.429 571.691
375.14 -368.656 968.801
375.141 -47.9595 543.166
375.142 30.8171 596.871
375.143 -45.6519 553.33
375.143 152.08 608.101
375.144 -25.4147 591.228
375.145 186.486 1054.78
375.148 376.407 676.673
375.149 5.75686 580.206
375.151 -67.4861 568.58
375.152 366.346 721.565
375.154 -10.374 577.47
375.156 -35.236 561.277
375.164 -12.4669 602.799
375.167 -307.055 622.658
375.168 -23.7703 591.28
375.169 -55.5907 543.037
375.17 -59.3663 550.519
375.17 -30.7844 566.611
375.174 -61.1633 553.041
375.177 -60.6619 547.955
375.178 -10.2863 572.105
375.181 -288.002 621.904
375.183 108.392 592.339
375.184 -71.8919 579.389
375.188 -45.0979 545.797
375.191 -21.9331 585.723
375.193 -296.368 642.056
375.193 -73.83 582.122
375.196 -20.7531 599.912
375.196 -159.494 569.856
375.198 135.589 602.966
375.201 105.294 604.166
375.202 -352.52 779.896
375.203 2.50055 574.852
375.206 -55.3708 540.605
375.206 2.47936 569.493
375.212 29.4227 602.776
375.212 -304.078 655.865
375.213 126.569 583.05
375.215 117.897 580.634
375.22 242.988 522.175
375.221 -333.022 739.125
375.221 -33.8132 564.015
375.224 240.084 514.659
375.225 207.099 568.626
375.228 242.907 530.35
375.228 -273.258 568.918
375.229 145.982 611.608
375.23 149.739 605.331
375.231 -39.1801 925.52
375.231 -39.6225 556.135
375.234 -49.4971 543.27
375.237 167.586 601.301
375.239 -289.407 625.288
375.242 -352.686 775.02
375.243 27.8739 605.763
375.245 347.845 800.645
375.247 242.471 525.003
375.249 -12.0394 580.344
375.25 -17.0404 585.847
375.25 161.584 604.713
375.251 376.481 660.367
375.254 121.159 580.548
375.262 -325.471 696.72
375.265 215.62 559.197
375.266 324.879 949.66
375.266 -15.409 585.881
375.27 -71.8982 860.822
375.27 139.609 605.9
375.27 -32.4364 599.943
375.27 -41.014 553.602
375.271 -43.6687 913.158
375.271 -75.1478 593.492
375.274 -260.749 502.963
375.279 201.672 577.941
375.28 -39.793 558.795
375.281 -24.0948 600.03
375.282 -18.5931 583.116
375.283 -46.6415 545.908
375.286 107.736 619.347
375.287 -114.305 808.813
375.288 4.14085 580.428
375.291 28.7858 588.621
375.293 236.254 534.223
375.295 107.244 595.453
375.296 -306.335 651.992
375.305 231.55 557.307
375.305 -22.4277 600.079
375.305 -67.1807 860.912
375.306 -36.515 556.295
375.307 -283.208 605.837
375.312 -264.409 535.214
375.312 145.354 608.723
375.313 28.4149 580.335
375.313 233.746 554.174
375.321 -8.65572 569.657
375.321 102.884 610.416
375.322 194.379 581.6
375.325 -295.045 638.857
375.325 -342.162 771.293
375.325 -69.6994 574.19
375.326 -236.208 580.284
375.328 226.792 557.951
375.329 -7.06503 569.674
375.33 370.745 690.646
375.335 175.981 1807.62
375.341 -297.549 649.488
375.344 -2.42629 606.036
375.345 -20.4879 591.585
375.347 -29.3386 569.557
375.347 -29.4636 572.233
375.348 -57.3767 545.765
375.35 -338.521 757.34
375.351 212.488 559.692
375.352 -263.186 524.29
375.353 372.736 686.121
375.355 378.489 664.285
375.358 241.903 536.217
375.362 -25.6547 597.27
375.363 -54.093 543.358
375.367 12.902 614.956
375.367 11.8755 561.804
375.368 -327.017 705.112
375.37 -46.8436 548.554
375.371 352.935 780.227
375.372 -59.6439 553.374
375.373 -23.6794 588.793
375.374 -59.155 548.287
375.375 310.581 971.128
375.377 -48.1857 546.015
375.379 -160.258 572.889
375.382 -27.0778 591.596
375.383 233.189 557.216
375.385 -45.8803 907.327
375.388 165.969 601.65
375.388 370.756 699.358
375.392 -95.5051 839.566
375.394 127.742 588.993
375.394 -10.4254 580.579
375.397 -74.2852 861.113
375.403 -55.8525 545.884
375.405 48.1333 524.068
375.406 -311.097 618.951
375.407 -38.083 556.425
375.409 -281.99 602.871
375.41 164.295 601.788
375.41 150.489 608.628
375.411 -25.2115 586.046
375.411 -32.3887 566.964
375.412 353.101 775.351
375.412 378.513 656.247
375.413 -67.8207 571.665
375.414 240.947 533.692
375.415 -152.046 520.947
375.417 -168.893 526.896
375.417 105.086 613.531
375.42 124.464 580.657
375.42 211.834 562.711
375.421 -56.3153 550.968
375.421 -29.8508 580.491
375.421 148.794 608.733
375.428 239.389 504.614
375.43 175.306 598.1
375.432 156.586 605.298
375.432 -20.6742 597.417
375.436 345.267 816.98
375.437 240.756 512.223
375.437 395.24 644.802
375.438 336.12 873.551
375.439 204.873 572.076
375.44 7.34842 577.927
375.442 -10.3375 575.207
375.447 244.046 533.255
375.447 143.706 609.027
375.449 110.801 586.952
375.451 -267.378 546.398
375.452 -29.725 577.806
375.453 142.009 609.117
375.454 124.433 625.306
375.455 -17.1242 588.966
375.458 173.642 598.258
375.46 234.829 557.122
375.464 239.439 534.002
375.467 -64.8467 861.291
375.469 -49.7305 546.119
375.469 186.242 588.406
375.471 110.13 592.738
375.472 -15.4848 589
375.472 240.36 507.105
375.473 -29.5995 575.123
375.473 147.785 611.928
375.473 105.582 616.657
375.475 -0.70784 575.277
375.476 -0.742789 606.253
375.478 -19.0993 600.38
375.478 111.296 589.832
375.481 -2.30313 572.592
375.482 -25.3264 588.953
375.483 0.893458 572.595
375.483 28.927 591.742
375.487 -15.6911 597.532
375.49 -317.823 647.057
375.49 183.753 591.602
375.493 357.896 755.673
375.494 -113.973 839.717
375.497 236.785 539.975
375.497 -307.644 619.649
375.497 135.091 600.503
375.498 -280.774 599.908
375.5 -285.563 615.944
375.501 49.6244 524.17
375.502 242.194 520.049
375.504 -57.8735 551.055
375.504 241.225 517.543
375.511 -299.144 653.305
375.513 237.931 534.308
375.517 -306.544 612.899
375.518 -24.0033 597.535
375.519 -167.097 514.73
375.522 362.435 736.487
375.524 160.009 605.259
375.527 205.653 569.257
375.529 -74.2176 585.433
375.531 391.7 649.794
375.531 -315.076 636.466
375.531 190.398 585.216
375.532 -15.5553 591.912
375.533 386.149 654.996
375.538 -336.797 753.214
375.54 336.461 867.902
375.542 -320.461 661.954
375.544 -319.153 654.495
375.548 -13.7872 586.334
375.551 237.064 502.625
375.552 201.06 581.371
375.553 -302.503 656.699
375.554 -279.975 593.604
375.557 -32.6772 572.522
375.557 -312.691 622.501
375.557 -153.93 528.472
375.558 384.297 655.413
375.561 177.927 595.132
375.563 187.944 588.424
375.565 208.005 566.207
375.567 -58.1226 553.705
375.57 238.235 548.283
375.571 214.204 559.844
375.579 123.425 583.782
375.589 196.9 1064.31
375.589 -30.9495 569.913
375.593 -269.298 555.105
375.594 -321.842 669.635
375.594 -7.13051 575.454
375.596 -13.9713 594.858
375.598 -35.4257 564.569
375.598 -27.3334 597.639
375.6 237.095 554.173
375.605 104.662 610.832
375.605 -41.2211 556.674
375.607 -278.758 590.651
375.609 -5.50159 572.785
375.612 -42.9592 559.246
375.612 -65.422 564.019
375.614 -3.9028 572.795
375.615 -45.8992 556.608
375.622 -63.3126 558.837
375.624 -307.927 637.667
375.625 203.491 578.327
375.625 -56.1148 548.734
375.627 -17.4369 600.631
375.629 -328.481 718.294
375.63 -263.223 516.465
375.631 -14.8237 994.181
375.632 -74.8897 591.224
375.632 -18.6914 586.443
375.632 27.7781 603.476
375.641 360.319 746.276
375.642 237.447 537.334
375.644 -15.7675 600.667
375.647 -29.9982 583.602
375.648 -52.8216 546.318
375.648 -17.2082 592.089
375.654 -63.583 561.494
375.654 376.923 681.803
375.655 237.711 551.325
375.658 -20.5954 594.924
375.659 -152.749 523.718
375.661 237.298 545.741
375.666 236.55 557.22
375.668 402.657 635.527
375.67 -36.8565 562.035
375.67 228.591 558.267
375.673 -22.3503 597.796
375.681 43.7304 524.559
375.682 332.834 898.481
375.682 -312.498 626.311
375.686 147.199 609.253
375.687 371.074 695.599
375.687 -302.25 660.748
375.69 -25.3575 980.049
375.691 27.415 594.927
375.693 -32.5505 570.055
375.693 -28.623 589.262
375.697 171.162 601.835
375.699 -338.628 762.808
375.699 -51.2948 546.427
375.7 -233.958 593.4
375.701 -59.944 556.441
375.703 -18.7767 589.351
375.706 -10.5249 586.597
375.709 -57.6676 548.822
375.71 376.963 673.525
375.713 185.525 591.832
375.714 -309.896 616.194
375.722 29.3316 600.704
375.724 -47.0809 551.617
375.726 125.108 583.937
375.73 342.678 834.026
375.731 242.875 517.606
375.732 204.294 575.503
375.733 -296.412 646.684
375.738 46.6963 524.575
375.738 244.31 525.451
375.738 112.528 587.344
375.741 211.315 566.134
375.744 369.061 709.067
375.745 208.28 572.221
375.751 -268.269 552.58
375.751 348.475 796.585
375.752 -13.855 589.454
375.753 54.9273 517.317
375.755 243.787 528.284
375.756 -48.097 902.189
375.757 -28.5032 586.567
375.762 114.176 587.315
375.762 232.444 498.635
375.763 -18.8621 592.263
375.768 115.301 623.02
375.769 -22.2574 595.091
375.769 -346.532 781.681
375.769 -165.977 575.925
375.77 -38.439 562.165
375.771 177.994 1527.81
375.771 -277.634 587.897
375.772 -308.501 613.045
375.778 -330.134 727.161
375.78 5.79153 583.952
375.782 45.222 524.671
375.783 132.922 598.114
375.785 189.711 588.643
375.785 4.16429 583.963
375.787 -262.881 519.507
375.787 -34.0073 567.521
375.788 355.843 766.125
375.79 -47.2839 554.27
375.79 118.591 584.335
375.79 -14.1029 600.911
375.791 210.638 569.159
375.793 188.534 1698.05
375.793 -31.5007 581.059
375.795 29.0786 595.079
375.797 158.432 605.801
375.8 -276.42 584.949
375.801 52.4173 522.155
375.802 345.783 812.479
375.802 130.1 592.429
375.804 167.984 1884.33
375.81 -18.9477 595.178
375.812 -13.918 592.366
375.815 -89.2393 845.826
375.816 -48.6395 551.724
375.818 319.35 965.053
375.822 395.548 641.459
375.826 -31.3681 578.372
375.827 121.872 584.247
375.828 380.813 656.624
375.83 29.2101 597.996
375.835 183.807 1741.26
375.838 -58.5517 873.297
375.839 243.76 536.676
375.84 -42.8068 557.002
375.844 109.064 596.276
375.844 -44.5522 559.57
375.845 -15.6369 595.251
375.847 176.391 595.708
375.848 -31.2357 575.689
375.854 -22.1647 592.388
375.857 -324.561 689.78
375.857 -8.74223 575.858
375.858 369.207 704.896
375.859 239.132 537.417
375.859 -31.1037 573.009
375.86 -344.622 777.113
375.861 322.412 958.132
375.862 241.99 515.294
375.866 42.2718 524.853
375.866 163.542 605.62
375.867 343.003 828.863
375.868 222.339 559.356
375.868 -40.0223 562.291
375.869 -38.2889 559.709
375.874 -7.10543 573.192
375.875 -54.3882 546.618
375.876 -3.92223 575.898
375.878 165.125 1910.91
375.879 -12.1118 584.09
375.88 0.89823 575.907
375.88 -48.4483 549.281
375.881 -284.529 613.366
375.882 192.225 585.633
375.883 170.833 1859.24
375.884 -31.6448 583.958
375.887 161.241 1164.84
375.889 -35.603 567.657
375.892 -34.1613 600.936
375.895 38.2868 532.163
375.896 -58.4151 556.772
375.899 242.799 534.151
375.9 -56.6203 554.239
375.907 -50.1986 551.828
375.912 199.986 1065.24
375.913 382.779 656.41
375.914 -335.259 749.509
375.917 -61.5389 556.728
375.924 168.649 605.407
375.928 237.723 560.367
375.93 -30.2831 589.623
375.93 -28.8936 595.298
375.935 -44.378 557.118
375.936 -260.183 501.424
375.937 -46.1301 559.683
375.938 238.895 554.461
375.941 242.572 512.664
375.943 -279.833 597.541
375.947 -264.225 530.602
375.951 -32.8515 575.832
375.951 176.669 1065.29
375.954 -348.721 786.883
375.955 346.102 807.559
375.956 151.394 612.556
375.96 -10.8144 604.103
375.963 2.52724 581.489
375.965 -29.0242 598.216
375.966 351.177 786.69
375.967 140.502 610.043
375.969 149.689 612.663
375.969 -41.5187 921.075
375.97 -266.627 544.457
375.971 165.282 605.692
375.972 -50.0013 549.385
375.974 245.457 528.347
375.981 244.93 531.186
375.984 27.1965 589.737
375.99 27.5583 598.269
375.992 329.723 918.28
375.998 -308.557 634.644
375.998 244.024 520.493
375.998 53.7089 520.04
376.002 -8.70835 573.385
376.003 155.833 609.335
376.003 -172.696 570.141
376.004 -282.008 607.221
376.005 -299.161 657.954
376.006 -5.53096 576.098
376.008 -301.017 657.734
376.01 -23.9287 595.466
376.012 141.158 613.143
376.014 -309.208 627.409
376.017 404.733 631.711
376.019 154.137 609.451
376.019 -48.8671 554.584
376.019 -313.974 633.891
376.025 -10.4882 584.325
376.029 -304.388 661.129
376.03 106.735 602.519
376.03 -54.8588 551.912
376.031 371.46 687.693
376.031 -12.2226 589.905
376.032 213.78 563.465
376.032 225.624 559.214
376.04 367.259 718.799
376.042 -258.686 494.031
376.043 -60.5941 868.168
376.043 377.29 669.985
376.044 240.109 548.76
376.045 348.906 792.108
376.048 206.827 572.855
376.055 241.686 510.357
376.059 358.533 752.07
376.06 -263.845 533.662
376.061 -43.1906 562.533
376.063 -331.944 736.47
376.065 -72.373 583.535
376.066 -30.6966 598.365
376.067 106.013 608.548
376.068 -34.177 570.614
376.073 120.316 584.708
376.074 375.421 654.104
376.076 -8.82279 581.653
376.078 43.6048 522.756
376.078 367.342 714.415
376.079 206.111 575.882
376.082 224.059 559.485
376.085 35.7362 539.811
376.087 -43.3752 565.199
376.087 -93.373 841.145
376.09 -56.8842 557.1
376.093 219.284 560.079
376.095 -12.1715 587.207
376.095 209.194 569.797
376.096 134.227 604.507
376.097 -54.6435 549.47
376.099 -50.286 897.053
376.099 178.273 1057.46
376.1 -70.1433 578.119
376.101 172.885 1136.56
376.102 -309.906 620.389
376.106 390.429 651.192
376.107 -8.78562 578.964
376.107 -155.769 541.925
376.109 -37.0548 565.328
376.111 238.727 540.643
376.117 -25.593 595.626
376.119 -33.2933 584.312
376.119 -115.761 835.89
376.122 394.099 646.397
376.128 -30.1672 587.139
376.128 -308.985 631.223
376.131 -283.404 610.591
376.132 107.243 605.63
376.135 -45.8895 601.193
376.137 353.91 771.942
376.141 -311.096 627.358
376.142 -306.342 661.1
376.144 205.947 1065.92
376.146 -312.583 630.723
376.149 -28.7835 592.808
376.149 -2.3171 576.325
376.151 125.796 587.429
376.152 170.447 605.675
376.153 375.486 678.841
376.154 203.025 582.165
376.16 -14.0543 598.626
376.167 -65.7953 567.514
376.168 138.248 607.449
376.168 -333.63 745.598
376.172 365.249 728.35
376.173 -308.516 617.234
376.174 27.3297 592.86
376.175 20.0859 525.625
376.175 402.935 628.46
376.18 173.07 602.51
376.183 -287.421 620.321
376.201 -51.574 549.692
376.201 -68.2538 575.59
376.201 -34.3347 573.501
376.201 229.889 561.819
376.202 167.079 605.967
376.204 -41.4589 560.167
376.204 -262.715 522.931
376.209 240.903 537.69
376.209 107.018 614.789
376.218 340.376 846.389
376.219 235.097 501.387
376.22 -273.534 573.591
376.221 -62.6089 863.04
376.222 -53.3381 552.232
376.222 -27.2581 595.782
376.223 -12.2825 593.03
376.225 -38.8106 568.128
376.225 -17.3106 595.853
376.227 246.151 525.893
376.228 -295.367 644.084
376.231 -55.1151 554.77
376.234 152.198 616.071
376.24 -41.6365 562.831
376.246 333.613 893.671
376.248 -50.4519 554.895
376.25 209.464 575.821
376.252 -30.4421 592.957
376.253 245.175 523.383
376.254 -308.297 661.066
376.255 2.6196 604.598
376.255 -300.844 661.986
376.257 -296.438 651.32
376.262 -37.2264 568.208
376.265 179.056 599.216
376.271 217.792 560.534
376.272 337.363 863.776
376.272 8.90363 573.803
376.273 -51.7964 552.342
376.275 27.7019 601.615
376.283 51.0085 522.873
376.283 179.025 1788.65
376.284 -53.5675 554.884
376.287 -323.534 682.652
376.289 -53.1287 549.79
376.29 143.626 616.577
376.291 -263.083 512.069
376.295 177.39 599.382
376.299 -315.428 641.494
376.3 -20.3087 995.97
376.303 -295.034 647.907
376.309 -10.5878 590.353
376.309 221.005 560.215
376.312 26.2652 607.526
376.314 -342.874 778.256
376.315 130.855 596.139
376.316 -275.574 582.789
376.319 -168.624 525.715
376.319 245.621 537.129
376.322 -274.363 579.845
376.322 153.253 613.073
376.324 -70.4878 581.216
376.328 -262.657 514.919
376.329 -12.45 601.79
376.332 -33.026 579.146
376.333 108.019 600.027
376.334 -353.452 787.295
376.338 240.163 557.798
376.34 246.749 523.248
376.343 363.298 733.512
376.345 239.035 503.444
376.345 -38.6598 565.667
376.35 -49.1131 557.655
376.351 -265.784 542.325
376.354 243.548 540.294
376.357 -81.5813 863.324
376.358 -63.9701 565.195
376.358 205.525 579.315
376.359 330.353 912.788
376.366 -292.645 637.479
376.373 -19.0601 598.946
376.375 236.404 561.256
376.38 -74.711 589.589
376.384 -340.975 773.688
376.384 -7.1762 579.402
376.385 356.519 762.514
376.389 107.559 618.128
376.389 239.758 552.196
376.392 239.619 560.853
376.394 238.604 558.101
376.395 203.164 1066.63
376.396 181.669 596.233
376.397 -73.7145 595.337
376.4 186.491 1722.08
376.4 -62.134 562.665
376.401 106.588 612.09
376.402 239.335 546.608
376.408 198.229 583.015
376.412 -268.972 562.457
376.416 -263.474 528.671
376.418 -236.47 576.03
376.418 -267.61 550.827
376.421 -55.3719 557.633
376.424 334.047 887.992
376.425 -298.026 655.142
376.428 -30.5907 596.084
376.434 245.155 540.17
376.436 -8.86951 584.979
376.442 116.027 588.326
376.443 26.157 604.81
376.444 240.57 503.316
376.445 247.338 520.604
376.445 128.664 593.534
376.448 27.1116 587.675
376.452 375.795 658.799
376.454 -259.524 499.697
376.458 -34.505 576.601
376.459 240.504 540.919
376.465 343.748 824.775
376.465 241.388 552.085
376.466 246.783 531.631
376.467 45.1267 523.274
376.472 -291.332 634.281
376.473 -281.069 604.847
376.474 -52.0384 555.202
376.475 49.5578 523.181
376.476 377.717 666.643
376.477 4.36091 613.82
376.481 138.989 610.967
376.483 -327.733 711.508
376.485 -306.274 665.564
376.485 233.268 561.841
376.487 -311.689 624.339
376.49 -360.887 748.012
376.493 245.857 520.932
376.493 241.545 505.806
376.498 199.147 586.035
376.499 -10.6397 593.478
376.501 244.879 518.427
376.506 144.767 613.801
376.508 -61.8926 560.214
376.513 148.871 616.704
376.516 -8.91 587.886
376.518 337.828 858.573
376.522 48.087 523.283
376.523 -17.4011 599.197
376.526 133.78 602.25
376.531 124.279 588.108
376.534 -12.3469 596.371
376.535 0.903658 579.646
376.535 -0.712888 579.646
376.535 -34.6933 941.605
376.539 197.517 586.245
376.539 -41.8449 565.915
376.539 231.698 562.128
376.542 -17.7193 1003.94
376.55 375.879 683.776
376.558 -36.1239 576.737
376.563 162.883 609.874
376.564 -290.021 631.086
376.566 -33.1891 582.254
376.567 46.6158 523.382
376.568 -12.4027 599.292
376.569 -262.232 509.962
376.572 -35.9715 574.056
376.573 146.195 2088.78
376.576 187.618 593.082
376.578 -7.24211 585.207
376.579 195.886 586.452
376.58 -40.2666 566.001
376.58 244.48 513.29
376.585 200.846 586.024
376.59 -317.206 645.473
376.591 361.313 743.502
376.592 2.54243 585.236
376.593 243.152 543.529
376.594 117.719 588.498
376.594 -40.4383 568.672
376.6 -304.494 665.998
376.605 -311.17 631.77
376.605 377.825 654.681
376.607 -347.136 788.456
376.621 -7.21169 582.514
376.621 157.794 610.258
376.624 351.934 783.062
376.625 40.8739 525.96
376.626 -58.7725 560.467
376.628 -73.436 592.855
376.629 367.926 711.045
376.63 -31.8456 587.918
376.633 172.362 606.353
376.634 220.534 563.645
376.636 243.989 516.114
376.639 -64.2882 568.276
376.639 -39.0181 571.43
376.641 143.106 614.104
376.642 -288.712 627.894
376.645 228.557 562.693
376.645 246.85 540.235
376.647 241.623 543.842
376.658 -46.4122 563.387
376.661 145.489 617.113
376.663 -322.486 675.541
376.664 -72.8037 587.269
376.665 -3.94734 579.847
376.665 247.397 537.384
376.666 -318.536 652.909
376.668 -2.33026 579.853
376.668 4.19224 588.137
376.668 -49.3597 560.731
376.669 242.61 508.487
376.673 -47.5919 558.172
376.679 124.873 591.19
376.681 136.739 608.367
376.682 389.151 652.587
376.686 -314.233 638.715
376.69 -42.0384 568.795
376.691 234.999 561.945
376.692 126.53 591.135
376.692 -32.4151 599.36
376.693 -172.544 557.392
376.693 -268.483 557.022
376.695 248.502 523.491
376.695 42.1988 523.66
376.696 -31.9904 590.826
376.702 370.07 702.136
376.702 -34.6758 579.705
376.705 -60.3549 560.55
376.707 -287.404 624.705
376.708 -66.1694 571.016
376.712 54.8538 516.329
376.713 -35.8323 571.587
376.714 24.7143 611.153
376.715 -50.7244 558.174
376.716 -47.7958 560.833
376.717 376.051 675.691
376.721 -268.041 560.116
376.726 246.532 518.481
376.727 -45.0324 566.15
376.728 247.482 529.172
376.73 -79.2912 864.194
376.733 323.531 953.481
376.736 -339.353 769.752
376.739 236.888 501.832
376.74 210.456 573.593
376.743 213.489 567.49
376.744 -262.63 526.55
376.749 -48.0002 563.496
376.755 201.98 1584.99
376.755 204.996 582.955
376.757 326.861 939.935
376.759 -64.8565 573.824
376.764 327.205 933.312
376.766 169.767 1157.79
376.769 -39.1978 574.317
376.77 166.384 610.017
376.771 52.3471 521.166
376.771 -0.716413 582.758
376.774 -35.9167 602.35
376.779 122.715 588.575
376.779 341.104 842.068
376.784 209.222 1067.75
376.785 37.0235 535.9
376.788 212.815 570.521
376.793 -68.9511 581.991
376.795 -5.56637 580.047
376.796 156.872 613.677
376.801 -36.3026 579.841
376.802 -263.281 532.108
376.803 -277.956 592.809
376.803 112.181 594.809
376.804 244.852 543.601
376.805 -76.9355 864.373
376.809 -280.04 602.276
376.811 -85.3482 853.461
376.812 -306.19 670.036
376.813 -37.439 571.72
376.813 208.145 576.86
376.818 -46.6271 566.263
376.82 -57.2323 560.796
376.824 28.4068 579.963
376.827 227.064 563.168
376.828 -337.736 760.554
376.828 -312.846 635.539
376.828 -310.193 625.185
376.829 -294.416 641.686
376.83 -42.2324 571.678
376.831 327.597 926.919
376.832 240.178 544.346
376.833 -47.0245 571.606
376.839 -68.6633 579.312
376.84 -44.8574 563.691
376.841 185.234 596.699
376.844 -354.941 749.432
376.846 -102.188 837.591
376.853 344.299 820.264
376.855 334.702 882.976
376.86 -270.454 565.966
376.863 245.638 516.169
376.863 246.512 535.053
376.864 -33.5044 588.271
376.864 107.936 609.8
376.867 365.981 725.173
376.871 -40.6396 571.765
376.873 190.248 1059.69
376.875 183.576 596.879
376.875 194.386 587.063
376.876 119.454 588.875
376.879 -45.4328 571.703
376.879 150.738 617.228
376.887 -34.9934 585.505
376.888 -53.8763 558.37
376.894 121.106 588.831
376.897 370.296 698.173
376.898 30.8534 563.98
376.902 43.5295 521.563
376.905 191.937 590.288
376.908 -64.6069 571.362
376.912 361.705 739.497
376.912 121.643 591.708
376.916 175.099 603.594
376.92 -43.655 569.123
376.921 -308.164 670.005
376.923 -43.8404 571.797
376.924 -7.28032 588.537
376.928 223.916 563.712
376.929 245.228 511.036
376.93 5.83453 588.549
376.931 109.162 606.878
376.932 338.44 853.809
376.935 -34.8469 582.814
376.935 -308.517 666.14
376.938 -283.583 615.354
376.938 242.368 541.383
376.94 155.218 614.005
376.94 -52.3192 558.481
376.941 -66.7766 576.778
376.942 -37.6114 574.607
376.943 131.656 600.064
376.944 248.11 534.92
376.944 -273.61 577.882
376.955 212.202 573.755
376.956 -25.2622 976.357
376.962 366.188 716.393
376.966 -258.865 497.971
376.967 -46.8425 569.142
376.969 352.397 778.809
376.971 -276.837 590.051
376.971 347.214 804.55
376.973 243.766 511.361
376.979 -317.245 649.92
376.982 -310.535 643.451
376.986 -265.127 540.576
376.989 -314.185 642.949
376.997 245.79 508.403
376.998 181.089 600.282
377.008 109.889 601.059
377.013 -45.2569 569.238
377.014 246.553 543.669
377.016 212.276 1068.42
377.016 349.965 789.107
377.022 -345.507 784.509
377.023 -69.1576 599.33
377.037 -171.408 547.253
377.037 387.642 653.593
377.044 -310.263 647.288
377.045 -48.2399 566.58
377.048 164.799 610.572
377.05 364.051 730.334
377.05 -104.544 838.038
377.053 189.525 593.712
377.056 202.751 586.619
377.057 -32.3034 597.078
377.062 -345.361 789.606
377.063 -51.1964 563.913
377.063 242.224 558.668
377.064 -349.591 794.3
377.066 -54.1266 561.237
377.068 -261.323 527.29
377.068 -70.9333 585.156
377.069 -282.373 612.375
377.07 357.28 759.111
377.077 113.424 592.315
377.081 240.038 501.769
377.082 246.302 513.721
377.083 215.24 1068.62
377.087 242.914 547.158
377.087 127.222 594.637
377.087 129.454 597.456
377.087 396.781 639.646
377.089 26.0853 602.948
377.089 247.288 516.22
377.091 161.405 610.839
377.092 108.72 604.187
377.093 -54.6369 887.7
377.099 115.086 592.284
377.1 -66.5204 574.313
377.102 -260.534 505.753
377.102 -62.5116 566.368
377.106 -10.7512 600.166
377.108 53.6576 519.255
377.108 222.417 564.177
377.111 159.706 610.968
377.112 -267.642 554.879
377.112 -49.6248 564.019
377.114 21.2857 517.548
377.117 -279.441 596.36
377.118 39.5984 529.076
377.119 238.594 502.085
377.121 217.609 564.757
377.122 374.506 685.154
377.124 -336.111 756.631
377.127 -10.7997 603.091
377.13 -39.5724 580.312
377.13 -37.6273 602.909
377.136 200.148 1605.05
377.139 118.407 592.211
377.14 -262.44 529.984
377.14 -310.984 640.018
377.141 204.451 586.6
377.141 176.895 603.846
377.141 241.377 547.469
377.142 243.441 506.427
377.143 249.263 537.828
377.146 -99.968 838.273
377.149 45.0316 521.877
377.15 -55.7105 561.33
377.153 354.992 769.158
377.161 174.311 1068.73
377.164 244.535 547.037
377.165 -271.846 569.285
377.167 -262.785 518.902
377.167 216.03 565.01
377.169 -303.076 667.242
377.17 -50.9973 561.457
377.17 -3.96968 583.38
377.17 -311.325 636.389
377.172 181.985 603.546
377.172 335.253 877.747
377.173 -2.34345 583.387
377.174 0.909098 583.39
377.174 395.111 644.204
377.177 -343.467 785.024
377.177 244.423 508.919
377.184 -48.8743 574.809
377.186 -52.5545 893.759
377.186 -262.338 521.76
377.187 154.827 1189.08
377.194 -48.6682 572.133
377.194 -33.6804 591.603
377.194 243.996 503.8
377.197 352.751 774.352
377.2 236.323 565.496
377.202 -351.926 794.403
377.204 -273.056 572.218
377.208 249.355 521.415
377.209 -321.607 668.85
377.21 110.019 622.514
377.222 -157.916 556.674
377.224 -296.809 656.776
377.228 341.728 837.537
377.228 154.324 617.635
377.229 218.251 1069.04
377.23 -42.4572 574.984
377.231 338.948 848.835
377.24 211.649 577.193
377.244 331.434 908.619
377.247 -73.2352 591.008
377.249 -261.666 508.418
377.251 393.413 648.761
377.254 248.351 527.096
377.258 14.7837 551.766
377.261 -57.5391 564.082
377.261 -312.898 639.967
377.265 400.668 639.117
377.266 -322.728 680.648
377.266 250.412 515.931
377.271 376.606 672.542
377.273 237.981 565.396
377.277 -9.16738 606.254
377.282 -60.7005 564.042
377.283 -91.3539 843.856
377.287 139.921 615.329
377.291 374.698 677.067
377.294 148.134 621.17
377.295 246.958 511.273
377.297 117.51 625.533
377.299 -5.59786 583.581
377.303 111.157 598.562
377.313 184.61 600.547
377.314 -331.236 734.644
377.316 -34.1389 600.351
377.32 250.435 524.111
377.321 321.023 961.956
377.322 344.921 815.971
377.329 -48.4801 569.668
377.33 191.602 1684.23
377.331 -37.8112 577.919
377.332 25.9865 600.449
377.333 309.522 976.294
377.337 156.092 617.728
377.338 -10.7104 597.669
377.339 2.55856 589.201
377.339 -267.137 549.46
377.339 -173.439 566.583
377.341 366.5 721.592
377.343 -308.164 674.688
377.348 207.707 580.702
377.349 114.007 595.618
377.35 248.903 532.648
377.351 -264.286 538.445
377.355 248.342 543.926
377.356 370.813 690.459
377.357 248.455 519.101
377.366 174.398 607.441
377.367 -51.6704 569.667
377.367 -47.2916 575.12
377.368 -231.091 524.652
377.371 -341.667 780.656
377.371 372.807 685.933
377.373 242.638 504.313
377.374 -298.391 660.606
377.375 -338.006 766.447
377.376 -275.901 587.689
377.376 245.072 506.477
377.377 183.278 1052.93
377.379 -33.8448 594.727
377.38 -279.194 600.103
377.381 -294.448 646.313
377.381 -309.555 659.232
377.381 -62.8221 569.452
377.382 116.828 592.667
377.382 -8.96954 592.067
377.386 248.895 541.068
377.387 -5.62343 586.487
377.389 -72.2458 596.968
377.39 -83.6538 860.219
377.393 -327.058 704.94
377.394 46.5354 522.188
377.4 191.37 594.133
377.4 225.803 564.235
377.401 370.824 694.814
377.402 4.21876 592.107
377.403 234.922 500.593
377.407 -291.648 639.496
377.407 -49.8724 567.103
377.409 147.502 618.275
377.419 -347.712 795.245
377.419 -33.9977 597.644
377.425 374.891 656.839
377.426 7.41916 583.777
377.429 251.017 521.459
377.429 197.194 590.702
377.43 -281.346 609.797
377.43 202.184 590.266
377.432 209.395 580.67
377.433 359.939 750.118
377.433 172.599 1095.13
377.436 -60.9806 566.914
377.436 -69.5 860.353
377.437 242.578 550.596
377.438 -37.9843 580.814
377.442 -61.2392 569.582
377.443 -263.261 535.933
377.443 -97.7438 838.951
377.448 180.429 1053.13
377.451 123.473 592.494
377.451 -109.261 838.917
377.452 241.45 556.508
377.452 213.402 577.353
377.454 -106.959 838.934
377.459 -27.778 970.738
377.459 180.431 604.131
377.462 250.506 540.932
377.466 219.415 565.098
377.471 246.614 506.336
377.472 250.023 527.146
377.474 239.722 565.49
377.478 -320.517 661.773
377.478 -59.1521 564.375
377.479 170.114 610.975
377.481 215.521 568.441
377.481 -42.6673 578.085
377.482 249.512 529.992
377.49 -44.3765 603.412
377.493 48.0226 522.293
377.493 -304.855 671.487
377.494 -51.4704 567.205
377.494 -235.31 563.187
377.495 -59.4035 567.04
377.502 -67.1511 860.509
377.513 -170.372 537.554
377.518 -293.138 643.105
377.524 214.851 571.476
377.528 -45.9003 578.108
377.531 109.828 610.837
377.54 357.834 755.298
377.542 -40.8853 575.491
377.543 50.9792 522.29
377.544 -32.2032 595.009
377.55 120.193 592.796
377.551 -354.053 810.508
377.552 355.491 765.128
377.553 -50.1024 569.982
377.554 132.459 603.995
377.555 251.607 527.001
377.557 146.504 621.691
377.558 214.169 574.514
377.559 -272.859 575.92
377.56 -52.8442 564.637
377.562 250.046 543.984
377.563 -114.321 808.873
377.563 -39.4484 578.257
377.563 251.101 529.849
377.565 217.183 568.39
377.566 25.888 597.952
377.571 -287.642 629.698
377.572 233.328 566.475
377.574 -306.454 675.33
377.574 -355.007 774.949
377.577 380.679 656.03
377.579 -53.069 567.304
377.579 108.631 613.977
377.58 250.113 519.146
377.583 248.128 514.147
377.583 347.952 800.696
377.584 130.201 601.175
377.587 348.127 795.58
377.593 -44.1054 575.521
377.594 126.891 628.857
377.598 125.73 595.529
377.598 -5.65106 589.608
377.598 195.618 591.112
377.598 -262.033 516.977
377.6 -262.161 525.187
377.613 207.112 584.144
377.616 -39.3547 603.678
377.619 178.813 604.507
377.62 399.194 640.147
377.621 253.682 524.004
377.624 -301.562 668.279
377.63 137.704 612.937
377.631 -259.875 504.022
377.631 -341.696 786.166
377.632 168.474 611.33
377.633 -290.432 636.496
377.634 -285.429 619.733
377.635 198.325 1626.09
377.635 246.415 547.495
377.637 -51.9268 572.758
377.638 -329.983 726.579
377.638 193.974 591.314
377.64 247.697 509.014
377.645 -54.4365 564.732
377.645 24.554 606.781
377.646 236.537 500.661
377.646 234.988 566.383
377.648 218.845 568.334
377.649 -63.1332 572.539
377.649 -111.623 839.349
377.651 -56.7892 883.254
377.651 117.427 595.97
377.653 335.947 872.96
377.656 -333.107 744.184
377.657 243.175 556.589
377.658 342.334 833.011
377.661 248.691 511.507
377.665 0.914224 586.929
377.667 -38.1714 583.923
377.669 360.26 745.9
377.669 -52.6389 562.181
377.673 249.686 514.002
377.676 -50.5457 575.543
377.679 -312.935 644.402
377.684 -45.7237 575.637
377.686 120.766 595.888
377.688 -50.3329 572.865
377.695 140.712 619.068
377.696 193.571 1062.03
377.701 375.092 681.999
377.708 -44.3075 578.413
377.714 -286.825 623.118
377.714 -343.761 791.174
377.717 176.262 607.903
377.721 -32.4357 951.167
377.723 249.209 516.835
377.724 386.468 655.178
377.724 -349.88 806.015
377.728 -289.127 633.296
377.731 -321.774 673.742
377.733 -266.296 547.321
377.735 49.5293 522.598
377.736 241.925 502.389
377.739 -95.5155 839.623
377.739 -291.493 643.714
377.74 -316.34 647.732
377.746 -238.164 590.151
377.749 8.9768 578.799
377.749 332.178 903.577
377.75 -38.3452 586.826
377.752 253.25 518.846
377.756 -71.9984 594.695
377.759 324.779 949.278
377.76 -352.15 805.908
377.761 -52.165 575.644
377.762 251.244 513.852
377.762 115.796 596.214
377.763 -35.2273 589.677
377.763 151.238 2004.1
377.771 -274.967 585.327
377.773 199.038 591.103
377.776 244.377 550.867
377.778 350.827 785.687
377.78 -280.32 607.22
377.791 189.061 597.97
377.794 -267.66 558.938
377.794 -3.99348 587.131
377.797 403.086 639.606
377.797 -67.5059 583.603
377.798 138.393 616.253
377.799 -54.6879 567.608
377.8 119.138 596.139
377.803 377.141 665.267
377.804 2.57291 592.749
377.804 241.546 565.776
377.805 369.12 708.885
377.81 42.1582 522.872
377.813 375.287 653.511
377.813 353.465 770.734
377.815 -334.854 753.545
377.825 -57.8676 567.58
377.832 122.478 596.05
377.835 -303.241 672.325
377.838 -36.5595 584.213
377.841 248.338 506.566
377.842 248.125 547.561
377.845 -261.621 512.014
377.846 -67.2245 580.922
377.847 -340.141 776.921
377.849 -324.607 689.604
377.852 243.866 553.923
377.854 4.24236 595.659
377.855 -42.893 581.399
377.856 -155.495 534.247
377.86 220.584 568.474
377.864 -56.0498 565.033
377.865 -295.861 654.367
377.868 43.4711 520.572
377.871 345.616 811.894
377.878 -259.029 501.92
377.881 186.411 1054.36
377.884 382.87 656.205
377.891 223.299 1079.37
377.893 358.278 751.281
377.893 110.639 605.429
377.894 239.397 569.147
377.895 -261.774 520.209
377.896 369.297 700.346
377.897 -310.64 652.537
377.897 -41.2753 581.488
377.901 -46.143 581.422
377.908 -352.136 811.465
377.913 -267.078 553.316
377.915 345.845 806.762
377.917 249.749 547.428
377.919 252.862 521.879
377.921 -36.726 587.116
377.921 -354.674 800.881
377.928 -41.1021 578.802
377.929 173.738 611.501
377.931 -2.35833 587.348
377.933 -0.721734 587.352
377.935 -319.323 658.975
377.938 251.862 519.377
377.938 392.258 650.354
377.939 109.728 620.654
377.942 328.894 923.178
377.943 252.373 524.725
377.946 -44.5259 581.518
377.948 -43.0886 584.298
377.949 -65.3395 578.382
377.953 237.812 569.447
377.957 -35.3995 592.798
377.957 250.326 536.128
377.961 135.5 610.54
377.961 141.458 622.6
377.964 -71.9611 861.563
377.964 241.064 569.041
377.965 250.852 533.275
377.967 -9.02287 595.83
377.969 -41.0719 604.23
377.97 -262.751 514.687
377.972 -346.01 796.609
377.973 255.442 524.229
377.977 124.19 596.209
377.979 -40.0052 587.165
377.985 253.901 516.382
377.986 -70.6943 597.963
377.987 252.894 513.887
377.987 -265.364 544.992
377.988 128.09 598.98
377.99 2.58547 595.878
377.99 253.955 532.79
377.993 -53.5778 573.274
377.995 206.573 587.793
377.996 -53.352 570.6
377.999 -336.661 763.143
378 -69.7739 589.461
378.004 -87.4242 850.811
378.006 153.617 622.109
378.007 249.426 509.244
378.018 -56.3083 567.908
378.02 173.118 1079.6
378.021 223.909 568.344
378.022 -47.5763 578.849
378.024 242.267 563.105
378.026 250.425 511.735
378.03 24.6893 610.352
378.031 -273.943 582.771
378.034 252.428 516.726
378.038 -9.10449 601.675
378.044 -35.7199 598.63
378.045 -65.637 581.271
378.046 -114.047 840.228
378.051 215.378 578.111
378.056 -262.608 534.185
378.058 -42.7624 604.354
378.06 365.096 727.766
378.063 -64.8863 861.803
378.063 -71.4299 589.523
378.066 -354.395 816.919
378.066 178.129 608.36
378.071 -69.4847 586.774
378.072 230.404 567.64
378.077 -300.428 665.457
378.079 -54.9595 570.696
378.08 384.95 656.179
378.082 209.021 584.721
378.096 157.124 622.085
378.104 -58.1548 570.667
378.106 196.693 1063.2
378.109 -49.2036 578.957
378.11 396.002 641.816
378.114 246.178 551.134
378.114 336.621 868.177
378.115 44.9712 520.886
378.116 251.98 511.583
378.121 246.073 504.787
378.124 369.476 705.115
378.124 -41.4783 584.598
378.125 377.47 653.697
378.133 243.373 566.058
378.137 -4.0145 590.464
378.137 363.044 732.725
378.142 -305.014 676.579
378.159 -60.5513 867.533
378.16 371.636 687.703
378.165 -39.8522 584.683
378.167 343.009 828.703
378.168 -163.775 579.889
378.175 -43.7148 914.132
378.181 336.94 862.536
378.184 -293.248 647.935
378.188 -278.531 598.325
378.192 -261.04 526.306
378.193 -260.932 518.093
378.194 -50.8315 579.061
378.195 142.626 619.821
378.202 -35.8931 601.763
378.202 222.4 568.809
378.209 157.154 1182.11
378.21 250.064 506.792
378.21 2.6215 604.863
378.211 -55.2118 573.578
378.211 172.156 612.071
378.218 0.9442 607.798
378.231 225.65 568.471
378.231 241.303 500.652
378.232 332.9 898.541
378.236 251.067 509.28
378.238 113.107 600.005
378.24 183.375 602.167
378.246 -259.835 507.61
378.25 -53.8426 576.37
378.252 243.728 502.816
378.252 18.9311 535.812
378.252 -326.363 698.385
378.252 -61.6309 573.505
378.255 367.5 714.436
378.255 255.137 527.462
378.26 -36.9188 590.445
378.263 -261.678 531.866
378.266 348.925 791.945
378.268 250.603 504.153
378.269 239.86 500.972
378.269 136.225 614.065
378.271 -35.5844 596.136
378.271 -67.7122 601.379
378.273 -310.62 656.991
378.273 254.618 522.105
378.276 -45.9291 908.3
378.277 -89.2721 846.109
378.277 109.326 618.16
378.279 116.468 599.942
378.284 -354.878 806.851
378.293 -272.2 574.153
378.294 390.754 651.367
378.296 159.217 616.062
378.297 252.103 544.812
378.304 318.796 971.558
378.304 196.852 595.166
378.305 -300.224 669.721
378.307 238.417 501.288
378.308 159.949 619.157
378.308 244.628 560.317
378.309 -63.513 576.258
378.316 -40.2151 590.494
378.317 52.3573 520.987
378.318 -9.15177 605.028
378.318 -59.7846 570.96
378.319 245.757 554.387
378.319 388.906 651.797
378.326 -355.189 796.602
378.328 -5.68673 593.579
378.333 252.647 541.947
378.333 251.071 550.741
378.339 -41.6817 587.712
378.339 187.653 598.98
378.345 -49.4458 582.061
378.348 -310.886 676.281
378.349 190.186 601.84
378.354 194.368 1668.47
378.355 -38.5737 590.577
378.359 363.176 737.746
378.36 253.183 539.085
378.361 46.473 521.197
378.367 340.204 845.8
378.368 126.544 599.666
378.371 201.021 591.907
378.375 367.674 710.258
378.378 -71.8019 592.845
378.38 -294.824 651.756
378.38 181.687 608.641
378.383 373.828 683.572
378.383 245.24 557.449
378.385 251.636 547.872
378.388 216.967 572.627
378.391 -260.962 510.279
378.393 -47.8276 582.164
378.403 160.982 616.144
378.404 -9.07314 599.388
378.405 -67.9075 587.338
378.406 -291.591 648.545
378.408 184.279 605.432
378.408 0.92001 590.896
378.41 204.377 591.672
378.413 -52.4785 579.372
378.416 -76.7808 862.596
378.417 251.663 539.421
378.418 211.588 582.046
378.426 167.331 1162.9
378.427 -56.8474 573.879
378.427 2.59988 599.436
378.43 -43.3305 587.833
378.431 -329.168 719.565
378.435 252.194 536.562
378.443 253.731 527.996
378.444 -48.1241 902.701
378.446 252.716 533.705
378.448 4.36397 614.087
378.45 249.245 504.68
378.451 247.981 551.395
378.454 -7.34182 593.777
378.461 111.995 603.347
378.472 133.978 611.453
378.473 377.808 670.573
378.474 195.265 595.575
378.474 -267.005 557.179
378.487 -293.07 652.167
378.492 165.214 619.178
378.492 155.551 622.833
378.493 247.794 505.017
378.495 -318.227 656.38
378.495 -264.617 543.048
378.498 329.704 918.12
378.499 110.608 615.437
378.499 213.279 582.006
378.5 177.427 612.218
378.5 -348.534 802.682
378.505 -7.37504 596.696
378.506 -58.4636 573.966
378.506 -61.9349 576.599
378.507 53.6477 518.872
378.507 337.488 857.55
378.507 162.748 616.221
378.511 333.439 893.074
378.512 -271.177 571.606
378.512 -52.7178 582.266
378.514 193.61 595.777
378.515 255.275 519.636
378.517 -301.895 673.772
378.52 191.108 599.009
378.529 -340.538 783.266
378.531 175.729 612.38
378.532 -66.005 584.793
378.533 -298.915 666.489
378.535 133.399 608.56
378.535 -37.4344 599.4
378.538 161.776 619.446
378.54 43.3795 519.175
378.54 -2.37241 591.105
378.541 -41.8855 590.829
378.542 -0.726043 591.108
378.547 356.551 762.345
378.55 210.933 585.293
378.551 -294.551 655.793
378.551 -63.8254 579.355
378.559 -37.6026 602.322
378.561 167.935 616.015
378.566 -261.656 515.803
378.571 -322.207 679.251
378.574 -353.058 802.469
378.575 196.676 1649.58
378.577 -260.625 513.315
378.578 251.792 507.013
378.582 253.318 531.04
378.583 -357.02 823.227
378.585 -316.748 652.984
378.587 166.225 616.157
378.588 -83.3975 857.532
378.59 253.35 547.924
378.595 -321.182 667.659
378.596 405.661 636.541
378.599 38.4091 533.628
378.6 218.714 572.772
378.602 252.8 509.501
378.604 -0.729336 594.023
378.604 256.906 527.685
378.607 -311.436 672.811
378.607 29.7828 574.578
378.608 -41.5309 921.354
378.608 319.468 965.335
378.609 -279.657 605.438
378.611 164.514 616.295
378.612 113.723 603.53
378.612 -281.783 615.155
378.618 -70.5016 596.11
378.618 403.837 637.012
378.618 -277.596 595.955
378.627 245.443 503.05
378.627 351.77 782.477
378.629 198.413 1557.02
378.638 394.779 647.143
378.639 -93.4328 841.655
378.64 -40.4255 593.827
378.642 163.55 619.523
378.645 -308.877 681.012
378.646 229.136 568.715
378.646 253.887 536.607
378.651 152.142 623.27
378.655 -350.577 813.265
378.659 -273.193 580.804
378.659 343.666 824.4
378.677 -7.41092 599.829
378.678 199.906 1064.82
378.678 243.145 569.918
378.679 186.97 602.628
378.699 -333.781 750.876
378.704 255.366 511.83
378.705 -56.6489 571.622
378.706 158.388 619.91
378.709 -44.8082 585.468
378.709 -303.568 677.827
378.71 111.878 612.714
378.714 -352.733 818.514
378.714 -296.123 659.625
378.714 189.715 1056.71
378.714 176.596 1064.87
378.718 -37.1251 593.99
378.718 -332.216 741.937
378.718 361.45 738.708
378.72 -261.877 524.202
378.721 -62.6305 863.322
378.724 -7.51119 608.616
378.729 -260.934 529.929
378.732 -4.03839 594.225
378.734 -157.5 548.345
378.734 -350.979 803
378.735 374.199 680.022
378.736 192.901 599.223
378.737 0.924833 594.235
378.739 159.252 1173.73
378.742 -173.349 565.997
378.745 -297.608 663.259
378.748 -310.875 680.977
378.751 47.995 521.707
378.752 253.902 512.179
378.759 212.704 585.457
378.759 -81.5884 863.377
378.76 222.059 572.652
378.765 -307.061 681.451
378.767 -285.854 625.115
378.767 326.008 945.077
378.769 188.706 602.647
378.774 198.773 595.774
378.775 -315.367 649.791
378.776 182.701 612.33
378.788 236.711 570.932
378.79 370.258 693.426
378.794 365.941 720.195
378.794 180.179 609.433
378.797 232.466 568.545
378.798 -46.452 585.582
378.805 254.528 542.379
378.807 253.431 507.042
378.809 111.203 618.986
378.81 -52.7181 602.523
378.811 220.462 572.914
378.812 -38.7891 594.122
378.814 202.147 595.549
378.818 137.043 618.014
378.819 361.453 743.534
378.822 112.603 606.878
378.825 346.867 803.54
378.828 376.236 675.692
378.829 -287.244 628.508
378.829 254.444 509.529
378.829 207.942 592.03
378.829 227.627 569.191
378.838 -266.606 551.945
378.839 131.218 606.156
378.84 255.609 545.1
378.841 178.2 1057.04
378.846 -55.7776 579.983
378.846 -323.801 687.594
378.848 -267.935 563.587
378.849 205.52 595.309
378.85 25.8619 597.153
378.851 2.61431 602.998
378.851 140.052 624.161
378.853 365.93 724.791
378.858 200.494 595.765
378.862 -51.0483 602.633
378.862 352.141 778.015
378.862 -66.1411 602.366
378.865 -115.898 836.851
378.868 -2.38485 594.443
378.869 253.961 504.397
378.873 -55.544 577.302
378.874 244.425 564.169
378.886 -74.5065 863.683
378.886 256.017 517.356
378.888 -54.406 602.622
378.89 111.429 610.017
378.896 260.173 527.548
378.896 -37.3057 597.117
378.897 322.756 959.081
378.899 -272.172 578.25
378.907 334.364 881.945
378.908 338.099 852.786
378.913 169.814 616.494
378.914 252.511 504.745
378.916 247.738 555.042
378.918 340.933 841.478
378.919 0.929341 597.366
378.919 202.951 1065.51
378.921 -45.0276 588.582
378.923 149.459 627.015
378.923 354.64 768.157
378.928 257.016 511.854
378.934 160.95 623.302
378.937 216.586 576.471
378.938 181.063 612.711
378.942 259.155 525.044
378.948 145.975 627.217
378.949 118.352 600.952
378.95 334.116 888.05
378.951 -337.276 769.878
378.952 258.676 527.904
378.952 -58.6627 874.955
378.952 4.27345 600.277
378.953 258.189 530.765
378.954 -346.721 803.838
378.958 144.232 627.312
378.96 248.608 502.944
378.961 255.504 504.232
378.967 255.149 539.705
378.968 -312.067 669.545
378.969 223.808 572.786
378.972 179.364 612.881
378.974 -265.585 549.417
378.975 208.771 589.183
378.977 247.225 558.107
378.98 -330.898 733.645
378.981 121.717 600.866
378.983 -326.723 703.945
378.986 404.106 633.66
378.987 7.48211 589.005
378.989 255.67 536.84
378.992 5.89209 594.636
378.993 52.2473 519.589
378.995 223.155 575.838
378.996 -259.249 498.283
378.997 -54.4124 582.993
379 254.686 551.234
379.004 206.368 592.462
379.005 -313.718 650.447
379.005 257.122 520.042
379.016 241.144 573.696
379.016 -339.252 774.657
379.017 -62.2838 580.115
379.019 -266.26 555.226
379.023 -156.604 538.435
379.029 255.096 515.049
379.03 -289.7 639.112
379.03 246.701 561.175
379.032 256.651 522.894
379.032 349.8 788.521
379.034 -291.092 642.521
379.035 -54.1851 580.308
379.036 255.071 507.067
379.041 115.025 601.233
379.049 249.96 552.041
379.049 -64.184 582.874
379.05 -284.736 622.325
379.055 256.089 509.553
379.057 189.697 606.113
379.058 -375.273 957.631
379.061 -348.873 809.078
