ply
format ascii 1.0
element vertex 1385
property float x
property float y
property float z
end_header
1087.650000 465.476000 2137.320000
-583.883000 513.073000 1763.890000
1084.440000 -756.343000 2707.080000
-653.146000 511.805000 2388.520000
651.227000 436.510000 1363.100000
517.174000 373.126000 897.399000
371.926000 428.323000 1623.560000
271.102000 -68.746700 1524.270000
789.700000 -793.968000 2686.980000
-451.164000 510.341000 1916.360000
-282.031000 501.019000 1938.980000
-421.697000 463.926000 2897.980000
-550.097000 270.268000 3131.820000
-186.772000 -804.544000 3754.760000
981.523000 450.736000 1438.140000
736.988000 460.669000 1863.420000
218.963000 395.268000 1544.160000
-114.662000 -884.475000 3747.390000
988.491000 -57.592200 2503.210000
484.442000 480.642000 1026.650000
-393.961000 499.226000 1653.570000
109.976000 504.541000 1225.120000
-605.494000 -472.499000 3805.010000
395.141000 22.679800 1489.940000
460.806000 102.770000 971.825000
-56.942300 489.609000 1576.720000
-479.232000 481.695000 2773.810000
752.387000 391.507000 1192.270000
-576.441000 -115.236000 3682.050000
-607.340000 -121.412000 3568.350000
69.098300 -623.997000 3713.500000
224.090000 210.478000 1518.180000
613.273000 473.488000 867.358000
990.844000 -131.619000 2361.970000
-144.035000 -115.987000 3700.220000
-376.542000 515.909000 2638.100000
-607.137000 386.586000 971.422000
23.527500 506.811000 1264.450000
925.797000 -513.285000 2463.470000
892.406000 -467.696000 2622.250000
-27.797200 493.916000 1102.970000
818.249000 -559.160000 2683.710000
1027.820000 452.556000 1582.710000
-168.227000 -398.971000 3791.230000
1103.040000 -551.525000 2718.440000
659.630000 388.495000 1205.660000
-402.316000 13.568700 3178.500000
241.140000 479.579000 845.687000
-469.882000 518.860000 2449.860000
931.134000 483.599000 2119.760000
-43.909200 484.454000 1744.080000
220.098000 -539.262000 3688.730000
520.873000 4.751790 1113.030000
-234.792000 499.766000 1555.740000
-510.518000 436.662000 1369.290000
-226.924000 -35.154200 3729.280000
-526.368000 394.253000 1244.490000
676.278000 335.744000 921.124000
426.761000 -405.165000 720.812000
623.607000 465.940000 985.900000
-609.086000 515.132000 2062.510000
323.718000 -190.682000 1498.970000
521.905000 -63.632100 3610.330000
389.362000 -606.205000 3669.420000
521.940000 -339.123000 733.325000
129.918000 -460.970000 3706.330000
-426.832000 -501.579000 3786.600000
-484.206000 402.961000 1105.290000
-556.277000 126.082000 3165.990000
-83.806900 -535.677000 3733.250000
548.384000 -97.114900 1165.160000
161.449000 504.490000 1446.940000
815.569000 -654.083000 3609.560000
335.706000 485.142000 990.673000
325.750000 109.733000 1507.600000
-678.434000 315.992000 2384.270000
-531.279000 -419.412000 3793.040000
-609.271000 -81.894900 3172.210000
-294.666000 496.557000 1705.700000
591.064000 463.290000 1491.330000
97.090900 496.053000 1114.580000
-642.033000 -45.090700 3712.830000
541.401000 466.163000 1169.070000
-653.444000 -146.380000 2621.160000
188.240000 -104.487000 3652.750000
-217.709000 489.893000 1040.830000
900.810000 468.690000 1849.180000
700.272000 -350.353000 3618.260000
-317.586000 -55.354300 3714.640000
1057.310000 -471.847000 2605.660000
808.639000 -884.445000 2628.560000
-616.981000 308.028000 2649.580000
12.080600 67.093400 1568.850000
-530.465000 505.503000 1601.430000
59.927000 406.065000 1585.320000
-258.730000 -343.156000 3748.320000
-576.279000 342.532000 3089.880000
759.503000 456.608000 1502.380000
1019.950000 322.967000 2601.310000
497.266000 -473.455000 3650.460000
887.904000 -818.203000 2449.000000
1019.300000 -404.245000 2494.970000
-70.731200 484.869000 946.468000
542.242000 231.410000 1471.480000
-553.075000 369.266000 2965.640000
689.243000 460.786000 1564.750000
88.275000 -17.973300 1472.090000
424.774000 -153.164000 3623.610000
462.484000 -14.355100 1525.050000
-632.096000 -133.771000 3387.920000
-612.743000 -314.906000 3783.760000
485.231000 156.093000 1480.770000
986.331000 326.319000 2233.590000
-223.375000 485.218000 865.841000
-348.148000 -207.972000 3716.060000
818.301000 -729.038000 2637.340000
485.460000 318.170000 1482.330000
57.828900 486.665000 966.051000
-556.276000 475.227000 1005.460000
-395.043000 482.425000 2820.940000
-12.196400 -45.112600 3707.030000
473.879000 456.019000 860.254000
-182.658000 461.461000 1747.550000
-631.855000 515.892000 1958.400000
547.210000 493.751000 819.633000
-638.027000 361.420000 1960.470000
1119.770000 -247.401000 2635.890000
-630.289000 367.546000 1049.700000
140.100000 -369.757000 3705.840000
321.242000 496.751000 1436.430000
-217.247000 121.624000 1608.270000
-312.552000 504.649000 2109.210000
-582.775000 402.215000 839.954000
-362.678000 500.153000 1557.630000
824.377000 -551.687000 3647.140000
703.484000 -296.563000 3686.280000
-506.889000 503.958000 1516.930000
-163.006000 498.359000 1186.080000
-618.561000 -165.842000 2967.960000
68.939800 -328.716000 3699.900000
291.712000 -389.154000 3698.810000
219.358000 35.539300 1512.430000
551.385000 112.634000 871.842000
58.991600 -512.757000 3714.720000
486.966000 -602.805000 3650.160000
-617.222000 46.717600 3746.650000
-673.575000 -105.856000 2509.910000
-633.870000 -140.420000 2786.160000
-238.918000 227.364000 1578.160000
-527.745000 522.905000 2603.740000
501.518000 425.060000 969.116000
545.424000 -849.935000 3646.370000
185.387000 491.422000 1076.670000
392.253000 -337.298000 979.044000
-314.344000 -379.101000 3801.130000
369.318000 -485.884000 3667.250000
-501.808000 399.050000 981.358000
-665.443000 346.617000 2097.680000
988.273000 -215.345000 2435.290000
630.783000 -96.310900 3730.270000
392.931000 190.863000 1498.030000
-518.950000 517.168000 800.398000
1016.740000 215.125000 2423.880000
-327.444000 502.069000 1809.830000
640.827000 394.440000 1630.610000
-205.505000 506.129000 1386.440000
1123.410000 -403.056000 2529.180000
-429.507000 500.110000 1493.540000
-454.882000 503.594000 1731.160000
486.160000 -11.973600 795.168000
1091.480000 451.666000 1699.720000
968.121000 -674.131000 3667.680000
-475.987000 -292.863000 3763.650000
-638.922000 273.914000 1946.410000
201.604000 503.936000 1231.780000
-689.768000 510.461000 2213.660000
1063.830000 38.182500 2520.150000
869.322000 475.555000 1965.610000
-614.713000 381.175000 1254.090000
1051.650000 -572.057000 2608.790000
1107.000000 -377.250000 2639.580000
473.422000 -136.966000 1010.410000
424.008000 -411.078000 848.291000
-656.014000 -886.397000 3804.310000
-143.807000 279.489000 1579.010000
-692.364000 527.105000 2110.900000
631.284000 369.388000 1134.930000
187.882000 312.516000 1529.950000
603.571000 -798.120000 3636.730000
-492.719000 -219.060000 3733.930000
-351.812000 504.562000 1974.370000
1043.840000 270.368000 2173.720000
-613.150000 294.017000 2943.010000
470.527000 -369.550000 623.282000
-451.248000 -75.925900 3727.660000
142.227000 166.370000 1531.850000
-465.093000 142.017000 3133.670000
714.583000 459.516000 1196.160000
-243.222000 119.026000 1697.720000
-488.971000 389.387000 2874.080000
644.930000 434.848000 1082.460000
996.832000 -54.679600 2376.310000
-630.153000 502.338000 852.592000
826.394000 -544.923000 2759.670000
702.181000 357.410000 1074.590000
699.452000 -883.135000 3622.060000
996.680000 -305.729000 2524.160000
755.955000 -662.911000 2750.060000
69.006000 477.931000 1703.790000
-286.979000 503.741000 1433.940000
1006.510000 278.763000 2294.050000
-226.814000 490.102000 1876.240000
540.468000 -137.018000 966.995000
-574.028000 -178.047000 3732.100000
45.786100 491.093000 1057.240000
517.574000 -138.324000 1469.480000
1046.380000 374.635000 1471.510000
943.637000 -820.174000 3651.690000
916.017000 385.558000 2335.330000
417.902000 -283.842000 1030.820000
99.736300 478.997000 1598.760000
-683.270000 302.337000 2191.410000
-555.860000 516.394000 2161.520000
338.663000 -344.900000 3658.860000
-93.774500 -299.927000 3719.600000
-499.480000 -864.204000 3795.550000
211.868000 441.813000 1690.590000
-68.469200 508.107000 1303.470000
-679.719000 -348.439000 3812.730000
-83.971500 -618.608000 3742.230000
-644.046000 399.619000 1422.230000
553.052000 -205.052000 806.570000
848.966000 457.445000 1573.600000
553.109000 -100.781000 854.349000
958.554000 457.427000 1611.470000
-443.497000 407.155000 1037.160000
-540.639000 -335.813000 3785.060000
277.946000 -244.231000 3649.160000
830.807000 -612.666000 2631.170000
-311.693000 -468.742000 3770.380000
1035.180000 457.591000 1751.910000
987.186000 140.087000 2499.940000
-677.752000 237.664000 2381.240000
-374.782000 479.120000 2203.980000
655.347000 371.366000 993.569000
-685.432000 499.699000 1667.960000
-635.639000 134.174000 3618.860000
805.627000 -821.346000 3611.400000
-410.662000 170.081000 3176.460000
-592.604000 -822.582000 3795.030000
908.080000 -404.759000 2585.330000
167.896000 507.759000 1370.250000
-394.358000 -819.668000 3779.140000
-414.846000 454.875000 2747.660000
889.668000 -534.625000 2533.060000
-436.933000 -677.203000 3787.720000
88.195700 299.021000 1545.620000
408.219000 -864.409000 3664.210000
-469.410000 502.817000 890.353000
-458.012000 -429.192000 3786.770000
-571.124000 515.193000 1915.810000
334.719000 -31.194200 1529.520000
956.537000 469.782000 2249.220000
-331.154000 495.706000 1147.420000
169.575000 413.047000 1596.380000
-686.067000 281.889000 3169.160000
1123.600000 442.396000 1541.180000
-379.027000 492.468000 1047.570000
1121.150000 166.240000 2589.090000
-612.388000 211.117000 3144.480000
1010.300000 466.630000 1898.080000
-464.231000 498.944000 1365.070000
-597.212000 517.207000 2508.500000
-306.583000 476.809000 2278.110000
-54.733600 510.671000 1409.170000
719.030000 -811.530000 2696.640000
199.500000 -336.762000 3677.850000
855.410000 -817.941000 2532.750000
-104.325000 487.901000 1643.640000
-288.254000 499.648000 1281.490000
-2.053050 -394.399000 3747.170000
562.656000 80.962300 1441.110000
-690.692000 66.390200 3702.510000
-15.900500 475.785000 798.673000
-644.372000 328.639000 2530.820000
1091.610000 454.892000 1839.920000
18.166600 -145.668000 3681.400000
-523.562000 386.557000 1167.250000
564.532000 -709.665000 3638.790000
875.964000 -681.219000 2513.230000
643.072000 408.173000 930.546000
-113.161000 501.297000 1521.060000
-643.957000 489.864000 1576.810000
-678.395000 263.968000 2879.760000
208.382000 -264.752000 3656.120000
909.123000 -895.182000 3633.570000
-671.150000 443.422000 2405.850000
149.973000 -713.416000 3705.450000
558.969000 -424.918000 3662.530000
-376.571000 30.305400 3109.270000
1034.420000 -178.902000 2482.410000
510.373000 -315.007000 801.169000
467.389000 -812.908000 3657.040000
300.264000 429.303000 1643.500000
355.703000 -252.830000 1479.660000
-597.490000 518.810000 1835.750000
868.789000 463.100000 1712.380000
-458.685000 489.710000 1217.210000
429.318000 -445.538000 3665.590000
481.756000 -34.466600 1010.690000
767.789000 -896.547000 2686.960000
564.607000 -1.742680 1446.100000
513.321000 429.246000 1594.810000
-431.179000 -178.108000 3730.840000
170.871000 479.415000 861.687000
1011.630000 321.317000 2427.370000
-451.265000 452.152000 1146.450000
538.202000 197.232000 803.710000
89.503300 -807.546000 3721.100000
270.114000 -649.144000 3685.000000
541.235000 -86.759000 1038.260000
-266.575000 -187.529000 3713.080000
633.332000 -470.685000 3631.530000
-688.793000 -742.924000 3811.260000
486.395000 -313.207000 3641.510000
-249.063000 -837.729000 3766.740000
1057.290000 237.173000 2254.280000
692.392000 432.326000 983.427000
1039.950000 417.171000 2163.890000
-582.063000 443.439000 2870.550000
839.348000 471.797000 1885.380000
1106.960000 -502.794000 2656.350000
561.689000 -211.913000 3613.410000
-540.332000 497.848000 2739.040000
456.243000 27.057900 850.865000
139.831000 -622.226000 3703.190000
591.062000 -113.022000 3611.650000
-193.898000 50.680100 1596.860000
506.839000 -33.989800 1472.910000
-619.546000 463.756000 2631.750000
612.420000 -311.403000 3622.910000
329.574000 -807.834000 3677.730000
-625.312000 -74.499800 2886.630000
-82.541600 490.347000 1030.760000
-79.474700 496.636000 1151.770000
625.129000 411.907000 1285.090000
-367.753000 510.512000 2063.930000
277.584000 -134.137000 3643.580000
-52.535100 329.498000 1570.200000
539.968000 59.335800 1167.980000
51.528000 478.524000 857.603000
633.034000 -648.967000 3632.660000
-410.682000 -392.042000 3827.280000
-416.217000 497.935000 936.462000
1059.990000 192.959000 2478.760000
-437.445000 64.548200 3119.220000
304.201000 480.193000 1507.790000
-485.068000 422.013000 1300.460000
-290.234000 502.302000 1512.460000
1000.040000 -568.116000 2497.230000
719.035000 -724.976000 3618.860000
-74.513900 -35.592200 3774.920000
537.677000 -94.649800 1261.190000
544.847000 -352.181000 3634.000000
989.414000 63.526400 2438.080000
581.847000 25.888200 1251.770000
48.066200 503.035000 1489.130000
-514.748000 511.366000 1774.880000
-464.599000 501.960000 1647.930000
-667.535000 469.999000 1510.620000
941.545000 457.336000 1684.080000
-492.272000 510.534000 2020.980000
371.913000 473.458000 1567.770000
-84.785400 478.847000 849.061000
367.304000 -131.460000 1526.790000
-668.149000 -63.067800 3581.380000
-294.582000 489.484000 1007.490000
-427.293000 517.751000 2685.710000
-612.601000 442.836000 898.725000
-668.634000 521.763000 1810.320000
913.588000 453.102000 1473.370000
-147.853000 479.490000 819.124000
456.874000 -742.179000 3651.240000
419.084000 -403.671000 1030.220000
-691.889000 445.002000 2279.970000
-472.598000 414.285000 920.183000
513.413000 -11.292600 924.046000
425.202000 472.701000 1624.420000
630.617000 464.708000 1429.580000
-586.379000 382.859000 1102.270000
-590.298000 271.750000 2796.280000
917.146000 433.323000 1291.430000
717.909000 439.174000 1379.370000
186.280000 487.580000 1000.310000
-445.064000 514.807000 2256.300000
-83.124600 -55.126400 3697.480000
115.400000 478.059000 821.605000
-415.018000 -345.054000 3770.980000
-238.739000 -693.625000 3762.900000
1121.970000 -645.935000 2709.240000
-114.723000 485.933000 1732.660000
-240.093000 237.073000 1645.770000
3.742120 442.074000 1708.320000
-261.564000 -25.322700 3787.240000
770.236000 465.164000 1762.070000
-144.018000 -257.887000 3700.830000
846.809000 -738.744000 2570.660000
311.046000 -71.186000 1579.330000
843.671000 -888.827000 3607.040000
1120.820000 -519.104000 2522.240000
-626.857000 284.146000 3008.830000
-683.947000 135.904000 3666.500000
265.139000 147.696000 1514.630000
-432.875000 497.759000 1004.500000
-586.860000 518.108000 2357.170000
-389.667000 -45.276900 3723.510000
509.913000 -213.111000 1459.240000
414.396000 484.506000 1027.960000
-22.236800 -257.010000 3687.830000
950.831000 -648.153000 2389.260000
-398.289000 514.800000 2461.250000
411.683000 -402.533000 963.342000
-608.471000 321.288000 3215.470000
549.515000 200.810000 874.041000
489.185000 -139.897000 1076.460000
837.288000 -876.241000 2561.670000
-161.181000 446.484000 1673.120000
884.205000 -887.994000 2436.960000
-562.967000 508.833000 856.082000
524.528000 -221.326000 1026.330000
-502.007000 340.713000 2998.230000
-425.829000 501.051000 1425.790000
-83.956700 -465.003000 3738.650000
-108.753000 -1.902130 1569.580000
487.761000 -306.874000 972.340000
210.190000 -741.743000 3696.210000
720.937000 463.418000 1702.720000
516.555000 -542.599000 3647.100000
586.666000 196.209000 934.567000
-602.764000 434.461000 2717.120000
270.070000 -840.403000 3688.660000
795.233000 475.121000 2011.560000
681.238000 -518.976000 3623.990000
-404.351000 5.763080 3765.470000
-665.735000 377.210000 1298.890000
-488.240000 -728.254000 3785.850000
-492.828000 459.457000 1024.840000
1117.540000 -316.567000 2613.600000
-587.863000 366.708000 2822.270000
-531.265000 -606.073000 3795.890000
1122.290000 -575.632000 2657.530000
-134.273000 504.339000 1284.750000
-342.698000 -778.299000 3777.240000
-604.321000 -658.386000 3800.650000
76.396500 53.873500 1560.790000
453.932000 437.672000 920.580000
-383.863000 497.844000 798.057000
463.510000 403.718000 1530.630000
-23.861300 502.006000 1210.820000
277.191000 251.159000 1514.050000
1046.190000 -36.752400 2478.230000
-617.144000 397.862000 1362.040000
10.843400 509.205000 1415.760000
-533.084000 -75.949000 3730.250000
-620.470000 519.160000 2224.550000
301.948000 488.960000 1069.200000
-668.385000 -597.695000 3810.740000
369.006000 496.605000 793.754000
-93.504000 408.018000 1610.340000
-661.525000 376.004000 1175.110000
-197.404000 -549.156000 3756.370000
134.105000 486.947000 960.626000
128.620000 -74.730400 3665.310000
266.605000 -23.459800 1571.570000
58.847500 512.066000 1361.590000
8.173060 -647.782000 3733.920000
475.208000 91.733300 1486.970000
145.206000 477.184000 1669.000000
999.479000 -359.850000 2566.850000
420.421000 -232.968000 1509.290000
282.016000 405.058000 1566.560000
-338.028000 498.645000 1325.630000
322.770000 484.742000 844.817000
11.942600 151.584000 1551.680000
-317.961000 -147.090000 3719.400000
-32.351200 -186.334000 3687.990000
998.283000 388.501000 2205.010000
-631.926000 343.825000 2592.940000
-3.109020 485.677000 943.059000
974.574000 396.658000 2485.190000
265.394000 81.317400 1515.500000
-99.900300 187.466000 1567.570000
-524.415000 210.330000 3130.890000
1085.320000 367.299000 2183.160000
8.163810 -728.643000 3731.500000
1016.950000 449.779000 1506.280000
-439.950000 510.106000 2086.180000
264.353000 483.307000 961.309000
926.441000 374.327000 2266.860000
424.396000 300.591000 1494.920000
398.733000 -715.341000 3665.660000
-683.184000 -158.161000 2470.820000
-216.119000 -279.591000 3720.620000
-397.502000 492.976000 1109.440000
38.704000 -859.590000 3727.520000
1099.120000 -10.225900 2604.030000
599.636000 469.581000 1340.440000
510.072000 463.131000 1519.440000
979.098000 372.589000 2333.460000
-181.679000 485.146000 940.390000
-458.503000 511.291000 827.434000
-641.898000 470.094000 2549.980000
367.704000 481.895000 920.006000
-125.583000 -364.622000 3757.380000
-630.012000 -161.844000 2526.970000
611.496000 452.565000 1647.730000
233.118000 465.789000 1746.410000
576.019000 398.192000 890.588000
758.727000 -478.303000 3616.780000
112.852000 -14.481900 1531.380000
861.067000 -605.793000 2571.550000
-78.592000 84.415100 1570.620000
-491.884000 -24.897100 3726.740000
355.634000 -430.407000 949.239000
1075.910000 -684.470000 2686.640000
255.935000 475.382000 1647.810000
-464.143000 518.355000 2386.040000
-123.684000 -176.723000 3698.550000
544.037000 -70.122500 798.894000
100.137000 469.421000 1759.070000
-457.228000 -810.997000 3787.320000
-580.408000 324.223000 3158.040000
842.909000 440.735000 1356.970000
158.544000 -225.062000 3661.260000
-224.625000 498.908000 1203.020000
933.534000 -416.011000 2484.200000
190.392000 -480.187000 3698.760000
420.060000 -414.615000 783.654000
867.253000 483.496000 2120.700000
981.338000 -75.923100 2434.510000
759.058000 -424.773000 3665.260000
367.381000 -54.289200 3643.740000
786.241000 -731.671000 2700.180000
-104.468000 -731.304000 3745.330000
190.969000 479.548000 1558.510000
992.137000 -376.123000 2444.710000
490.917000 -73.821500 1150.760000
78.559000 -266.161000 3674.880000
1120.800000 -379.604000 2708.040000
92.067600 204.968000 1537.580000
1117.910000 461.321000 1983.770000
583.504000 369.840000 1494.420000
160.108000 -865.344000 3709.090000
327.295000 -283.645000 3642.980000
507.317000 483.215000 1395.210000
-238.039000 495.533000 1734.180000
992.741000 265.566000 2462.950000
516.431000 19.991500 748.206000
-631.041000 -88.607800 3432.320000
449.448000 494.053000 1282.840000
-301.236000 -695.368000 3772.890000
-259.055000 484.184000 813.566000
-176.887000 349.885000 1605.910000
-532.771000 430.805000 2943.610000
235.428000 -18.079100 1483.000000
-25.797900 -14.310100 1512.540000
541.082000 -68.766500 907.506000
513.416000 -232.085000 1122.520000
-641.491000 -78.570400 2753.470000
929.724000 -432.190000 2667.930000
528.885000 76.528400 820.841000
-690.809000 225.471000 2037.100000
-180.080000 502.281000 1524.370000
1061.140000 466.912000 2038.900000
237.934000 482.079000 782.751000
501.613000 368.843000 836.495000
344.354000 470.208000 1662.090000
-427.138000 513.003000 2195.720000
1012.890000 445.930000 1383.860000
-617.942000 511.836000 1710.550000
473.423000 -113.253000 3616.790000
753.250000 462.895000 1648.480000
349.483000 -189.768000 1559.430000
442.137000 469.606000 1500.520000
559.913000 460.584000 970.972000
-296.620000 502.042000 1864.400000
-649.373000 172.030000 2371.590000
-607.461000 351.273000 2704.030000
825.844000 460.567000 1635.850000
513.314000 -254.617000 1516.760000
787.265000 -595.958000 3613.920000
-505.923000 512.869000 1946.310000
760.987000 -802.723000 2742.010000
443.538000 487.885000 1179.650000
484.451000 97.969200 1034.400000
609.986000 -250.976000 3607.920000
-208.305000 492.072000 1613.850000
418.754000 -374.883000 3659.770000
470.160000 -368.248000 859.197000
1035.760000 -448.315000 2552.420000
-338.972000 -269.817000 3727.540000
-578.991000 523.546000 2643.590000
610.841000 409.937000 1019.500000
513.017000 -196.554000 1371.230000
246.957000 500.027000 1189.660000
89.531600 -45.158500 3710.970000
210.172000 -600.292000 3692.830000
-214.185000 360.829000 1656.780000
293.853000 -126.276000 1513.080000
-653.462000 -90.081300 2649.960000
516.545000 -672.153000 3649.390000
-476.676000 513.729000 2149.380000
408.810000 488.445000 1127.750000
523.921000 -225.731000 900.989000
900.855000 -737.668000 2448.960000
550.677000 -70.581100 1400.400000
730.658000 -896.831000 2289.900000
-364.240000 -500.985000 3781.290000
711.945000 403.007000 1247.990000
-482.542000 446.297000 2837.150000
420.334000 496.074000 1337.520000
989.725000 3.818810 2506.340000
-687.420000 -56.677700 2788.020000
961.854000 466.202000 1856.220000
-656.267000 238.106000 2522.820000
-30.775500 203.176000 1555.890000
-114.922000 -671.120000 3750.910000
543.272000 47.421900 1381.430000
-207.893000 -631.993000 3761.830000
602.684000 471.580000 928.598000
-686.820000 419.701000 1556.200000
280.175000 -709.538000 3686.140000
359.330000 -546.138000 3668.660000
991.956000 -139.956000 2512.060000
710.176000 -597.501000 3621.820000
590.470000 75.822900 1285.740000
1041.950000 71.034000 2468.140000
341.456000 492.821000 1132.970000
-227.980000 503.158000 1318.720000
936.914000 481.098000 2188.430000
-464.338000 431.237000 1243.900000
339.708000 -747.769000 3677.430000
1083.470000 87.291300 2550.280000
466.940000 -316.697000 1063.990000
-63.386700 -362.142000 3731.550000
-349.205000 496.185000 1211.270000
509.767000 -209.389000 1187.200000
484.078000 -389.604000 738.110000
220.378000 -802.641000 3699.050000
612.821000 353.614000 923.154000
-659.879000 258.418000 2737.610000
-51.268900 482.945000 1672.840000
-548.280000 460.915000 1471.360000
-626.641000 -535.177000 3808.380000
-620.656000 516.219000 2439.670000
1049.390000 -237.961000 2535.100000
-619.659000 279.288000 3138.510000
-594.335000 241.659000 3095.210000
746.601000 455.185000 1443.070000
986.262000 -520.000000 2462.990000
-626.663000 376.125000 3089.790000
-32.693000 -831.599000 3738.260000
-678.727000 -186.156000 3692.760000
-218.052000 -487.690000 3756.870000
-520.969000 149.392000 3109.830000
729.798000 -711.989000 2708.850000
67.250500 355.466000 1552.710000
-233.391000 380.189000 1768.430000
-682.059000 472.171000 2353.390000
349.510000 52.352500 1521.290000
348.498000 499.964000 1237.540000
1071.000000 -504.179000 2552.770000
-618.081000 -250.804000 3752.890000
585.439000 -571.600000 3643.030000
459.466000 -365.792000 956.133000
-661.648000 418.811000 2493.140000
594.636000 153.678000 863.531000
-687.196000 400.796000 2112.290000
-336.766000 502.050000 1396.280000
-551.890000 -740.720000 3797.850000
417.147000 428.472000 869.867000
632.971000 462.686000 1543.820000
159.735000 507.386000 1274.700000
874.770000 464.976000 1795.190000
-394.854000 -614.081000 3779.620000
-332.624000 -613.691000 3776.500000
531.510000 -110.745000 1109.210000
364.926000 347.310000 1502.300000
435.260000 420.898000 1595.890000
1072.490000 -433.694000 2507.360000
578.923000 465.751000 1122.340000
-622.860000 -138.907000 3290.160000
-358.345000 493.497000 911.876000
-610.625000 353.509000 2970.410000
705.460000 372.031000 1134.020000
146.673000 103.454000 1533.660000
-186.799000 -435.366000 3747.820000
-195.016000 -85.689500 3705.470000
-304.003000 487.813000 946.753000
797.713000 -609.729000 2713.560000
414.638000 494.595000 1231.140000
-641.480000 206.031000 3340.990000
-495.521000 260.042000 3110.780000
-650.312000 -159.018000 3537.690000
586.012000 428.053000 1239.140000
-563.687000 513.809000 2102.790000
510.608000 143.581000 841.717000
-217.841000 -754.238000 3758.640000
-468.613000 -543.391000 3790.660000
-564.367000 351.993000 3026.040000
804.896000 413.338000 1257.500000
-526.416000 -371.447000 3832.420000
440.004000 74.329900 885.679000
-515.597000 517.543000 2269.300000
664.987000 419.600000 1155.690000
845.607000 -772.663000 3613.790000
-419.197000 499.589000 1317.380000
826.932000 455.637000 1436.490000
-688.300000 346.883000 2330.090000
504.154000 -279.926000 915.410000
485.294000 378.791000 1481.950000
-251.694000 -378.803000 3797.500000
641.440000 -155.159000 3674.920000
545.300000 -104.522000 750.443000
449.235000 43.574600 1508.360000
-290.348000 499.202000 1764.400000
-419.252000 507.517000 1867.170000
108.338000 503.253000 1477.970000
273.404000 503.672000 1301.190000
657.887000 -424.108000 3657.440000
243.435000 492.435000 1084.860000
1094.700000 -445.777000 2662.220000
-179.038000 492.117000 1084.910000
-338.103000 499.550000 2162.070000
544.938000 468.040000 1455.610000
-352.000000 486.444000 2419.430000
535.125000 165.220000 1008.880000
465.183000 9.520700 975.646000
-9.388150 258.287000 1554.350000
-361.606000 505.121000 2582.650000
-662.671000 375.434000 944.380000
513.685000 -193.314000 1077.250000
909.264000 -618.616000 2454.740000
-604.927000 -175.164000 3672.340000
440.099000 -108.899000 1505.400000
543.519000 478.225000 1227.420000
365.591000 -427.113000 867.154000
-547.954000 446.707000 953.837000
899.368000 454.384000 1541.340000
-272.204000 494.119000 1152.270000
-341.721000 492.921000 839.414000
979.519000 461.574000 1734.660000
855.852000 -511.499000 2664.160000
307.082000 -183.761000 3638.810000
480.484000 -151.122000 1516.820000
926.393000 -831.470000 2407.800000
498.661000 -24.630700 1065.180000
998.722000 -455.471000 2477.540000
515.179000 481.211000 1081.200000
-229.116000 439.351000 1773.990000
329.504000 -626.936000 3673.070000
-553.107000 518.616000 2221.460000
305.555000 496.696000 1188.880000
573.645000 376.065000 1131.090000
405.093000 -262.385000 3625.670000
-384.603000 504.134000 1800.150000
267.244000 498.050000 1463.280000
-685.331000 272.322000 1898.730000
553.497000 351.936000 854.991000
-215.238000 177.341000 1593.990000
416.047000 486.287000 1452.030000
497.390000 -316.840000 857.347000
-337.648000 498.281000 1665.140000
1005.550000 369.586000 2396.790000
1003.380000 340.259000 2286.590000
-688.070000 524.605000 1950.790000
-635.345000 459.152000 1436.970000
1058.460000 452.417000 1631.140000
1094.820000 -427.236000 2593.220000
558.577000 268.031000 1430.640000
-520.428000 515.991000 2376.000000
-125.406000 -425.750000 3752.980000
942.235000 -703.617000 2400.100000
506.151000 487.441000 1282.210000
-451.186000 5.576990 3644.560000
-488.319000 375.934000 1053.490000
39.045000 495.602000 1113.650000
660.340000 -834.277000 3622.920000
527.284000 111.037000 1474.210000
522.715000 155.042000 896.851000
430.556000 -362.192000 899.691000
511.017000 -83.939100 1206.040000
530.177000 -189.279000 947.107000
376.414000 -239.693000 915.194000
-189.792000 252.740000 1601.600000
1031.610000 -547.203000 2559.000000
242.996000 476.848000 1592.500000
-680.307000 375.592000 2391.400000
1077.330000 -228.606000 2585.750000
864.271000 -683.184000 3608.530000
657.176000 381.046000 882.812000
1109.940000 399.324000 1590.610000
-399.320000 507.156000 1943.630000
577.517000 415.854000 1544.270000
-602.013000 -62.306700 3536.790000
542.296000 482.446000 1337.340000
-42.964600 -750.872000 3741.140000
1021.150000 470.357000 2136.010000
-692.642000 -70.038600 2456.400000
48.824700 -451.802000 3713.940000
794.744000 429.030000 1324.450000
92.298400 501.471000 1170.560000
-592.437000 322.250000 2771.190000
-468.626000 518.913000 2514.750000
404.554000 247.836000 1496.310000
-669.775000 241.039000 2630.000000
-650.841000 355.288000 2016.870000
-687.676000 358.268000 1049.360000
813.423000 379.983000 1117.820000
734.654000 466.604000 1806.740000
-686.430000 -54.733900 3679.590000
269.533000 376.474000 1519.730000
-580.577000 -55.196100 3708.350000
224.423000 269.158000 1521.460000
-542.450000 386.021000 2908.820000
-518.808000 503.844000 917.076000
1048.010000 285.517000 2404.100000
-626.138000 -420.399000 3803.690000
12.000100 370.771000 1563.650000
881.704000 -493.439000 2570.210000
792.667000 -847.879000 2672.090000
-537.276000 469.933000 2840.780000
553.644000 -157.594000 837.304000
-678.772000 268.539000 1985.680000
-17.637200 497.602000 1535.010000
944.811000 449.245000 1396.050000
832.221000 464.787000 1758.080000
752.273000 -867.406000 2401.010000
503.861000 -271.406000 1012.370000
1015.570000 -341.780000 2485.930000
-548.892000 511.496000 2047.460000
507.024000 427.910000 897.386000
-373.176000 -880.315000 3774.880000
-615.013000 -119.116000 3501.110000
-27.868100 420.308000 1641.150000
-668.897000 -483.606000 3811.930000
480.037000 465.354000 1629.930000
643.282000 462.313000 1602.060000
1063.750000 447.931000 1540.650000
328.105000 503.763000 1291.840000
980.792000 -621.513000 2465.400000
767.656000 -694.670000 3615.600000
500.355000 66.833100 1081.640000
-628.113000 516.136000 2319.990000
981.002000 474.482000 2027.280000
473.104000 -215.999000 1506.820000
438.802000 -364.323000 1066.410000
1023.670000 -267.592000 2489.220000
61.898500 477.702000 1639.110000
-135.226000 -823.628000 3748.480000
885.894000 483.134000 2068.440000
382.852000 398.314000 1525.370000
-363.602000 -727.236000 3779.040000
966.183000 461.422000 1794.660000
930.017000 -698.039000 3635.810000
-463.406000 503.061000 2725.570000
-266.727000 445.555000 2022.490000
60.055100 509.332000 1306.620000
-555.905000 388.148000 991.413000
-430.216000 515.463000 2342.850000
8.155860 -534.337000 3723.760000
-125.171000 49.523100 1559.310000
42.139500 482.736000 912.101000
483.607000 137.847000 936.359000
78.643700 -145.523000 3677.860000
-463.006000 523.008000 2638.980000
-596.890000 392.769000 914.323000
112.018000 509.289000 1374.280000
-665.865000 -135.904000 2559.170000
28.335100 -287.658000 3692.550000
-205.059000 -146.518000 3703.780000
991.350000 178.045000 2459.470000
434.317000 483.979000 1079.590000
616.424000 418.467000 1187.520000
208.762000 -54.580000 3661.490000
-269.414000 -888.392000 3764.810000
1083.400000 223.418000 2517.490000
825.223000 -671.326000 2636.420000
-172.856000 506.401000 1430.040000
248.621000 484.423000 901.369000
422.819000 477.390000 900.157000
957.204000 473.793000 1977.630000
-75.084300 507.323000 1358.820000
-170.970000 146.288000 1588.050000
258.709000 505.873000 1355.200000
680.753000 -686.726000 3624.080000
98.654500 -215.726000 3672.690000
-688.956000 -240.195000 3748.890000
806.967000 -889.557000 2406.410000
-2.019670 -95.288700 3683.340000
-611.422000 -135.404000 3012.350000
223.534000 496.486000 1136.190000
-474.079000 511.236000 1862.660000
454.824000 488.380000 1411.320000
-661.892000 226.074000 2466.910000
-0.875300 483.608000 1599.430000
-124.484000 484.141000 939.353000
686.763000 -247.435000 3703.990000
1090.050000 -345.727000 2565.490000
-135.307000 -547.504000 3744.690000
-426.466000 496.673000 1262.680000
893.484000 475.037000 2245.900000
-691.092000 498.349000 2161.020000
48.930100 -575.037000 3724.220000
-582.593000 424.552000 2797.720000
-582.744000 505.868000 1587.860000
503.535000 -202.504000 3620.720000
747.180000 -841.760000 3614.000000
352.885000 232.495000 1501.820000
365.578000 499.961000 1338.800000
791.831000 470.164000 1859.420000
534.247000 356.076000 1471.580000
523.204000 -56.130400 1111.370000
-613.956000 -92.584600 3242.820000
-573.439000 -534.101000 3799.790000
626.386000 463.502000 1218.300000
45.918500 265.840000 1548.880000
-687.389000 244.832000 2326.210000
-311.741000 -551.350000 3772.390000
-395.700000 184.552000 3126.820000
345.501000 2.276330 1485.910000
-299.563000 -301.873000 3745.310000
3.366070 27.582600 1529.570000
910.272000 -563.153000 2476.080000
-597.141000 -103.511000 3624.620000
-607.303000 -25.027400 3748.480000
-402.959000 -292.204000 3754.040000
-239.089000 -581.343000 3766.090000
-560.179000 507.401000 1650.540000
-253.729000 492.775000 1085.440000
405.292000 -202.944000 3626.930000
366.334000 -163.578000 3633.800000
805.683000 456.332000 1542.190000
435.462000 479.170000 825.216000
74.274500 23.183700 1517.090000
667.692000 448.101000 1698.970000
-441.047000 412.251000 2868.670000
917.856000 -775.417000 3627.700000
999.730000 290.886000 2195.540000
-262.917000 494.663000 1652.410000
344.841000 499.366000 1388.740000
-447.686000 508.533000 1970.050000
-630.880000 422.078000 1474.920000
755.929000 -781.503000 3607.920000
728.951000 -873.434000 2575.210000
240.164000 -458.294000 3685.520000
566.198000 -128.558000 1450.290000
-530.847000 378.497000 1112.550000
560.186000 479.227000 869.387000
56.216700 503.534000 1222.660000
460.019000 91.489500 839.532000
959.736000 -486.506000 2429.990000
317.325000 324.418000 1509.450000
-631.124000 377.966000 1131.620000
28.487200 -360.382000 3713.310000
-208.570000 -365.739000 3769.440000
-104.277000 131.607000 1567.910000
109.734000 -664.557000 3714.130000
-155.755000 494.794000 1132.730000
-625.866000 261.070000 2687.350000
526.945000 449.027000 1024.580000
-366.976000 -369.289000 3807.730000
-445.738000 443.726000 998.883000
504.362000 268.844000 1478.260000
-667.565000 323.342000 2439.420000
-633.768000 514.434000 2015.700000
353.343000 154.593000 1502.900000
-528.763000 448.388000 1418.610000
-565.459000 372.624000 1216.360000
560.795000 194.520000 1436.420000
1085.840000 439.111000 2182.980000
-630.688000 435.018000 2588.940000
724.592000 -392.352000 3641.990000
-300.084000 502.907000 1988.480000
-680.187000 366.004000 1928.510000
316.633000 -64.098500 3633.520000
240.650000 -378.375000 3691.750000
990.479000 435.132000 2228.190000
-416.317000 -553.145000 3785.940000
-566.184000 519.599000 2553.300000
348.346000 -81.745800 1534.640000
214.842000 501.129000 1460.410000
-476.366000 38.622500 3095.240000
715.192000 -872.978000 2682.260000
532.583000 -263.992000 797.653000
502.972000 -86.365400 1473.420000
678.928000 448.592000 1413.180000
-95.795300 299.993000 1573.030000
-353.249000 499.913000 1611.820000
-388.980000 515.771000 2531.720000
-77.654300 507.549000 1478.690000
951.459000 -538.568000 2425.570000
-287.383000 498.200000 1564.480000
623.780000 -530.533000 3634.420000
661.325000 -776.154000 3627.300000
166.468000 -14.384600 1521.730000
78.676300 491.709000 1529.740000
-479.207000 -481.447000 3791.590000
330.705000 -437.757000 3683.030000
-617.325000 -123.406000 2923.500000
444.517000 186.037000 1493.160000
-441.075000 -126.955000 3727.990000
-552.644000 -471.789000 3798.350000
-666.457000 521.602000 2066.110000
488.045000 -259.942000 1453.510000
119.769000 -755.161000 3712.330000
851.686000 481.477000 2014.150000
-145.582000 -762.774000 3749.940000
1069.840000 -190.777000 2550.940000
-266.538000 -65.490400 3711.960000
-28.333300 506.130000 1262.740000
556.846000 -184.882000 1456.990000
-166.221000 -660.846000 3750.820000
1069.510000 453.524000 1793.020000
-405.961000 500.474000 1704.110000
-491.255000 521.478000 2561.330000
-300.655000 -807.225000 3768.090000
-644.965000 -106.754000 2705.190000
239.147000 412.434000 1594.690000
175.603000 494.371000 1500.220000
888.644000 470.909000 1901.210000
516.009000 -11.941400 979.100000
-216.953000 260.708000 1545.240000
-542.466000 300.299000 3088.620000
949.090000 -366.773000 2471.740000
-300.295000 -25.089800 3752.770000
-587.189000 397.334000 2934.640000
531.433000 -37.813200 1025.110000
689.958000 410.358000 1076.710000
964.837000 -682.221000 2441.230000
-506.119000 506.727000 854.361000
280.249000 -528.367000 3683.440000
179.813000 363.459000 1533.660000
560.132000 422.909000 1147.750000
274.809000 -14.363300 1521.530000
-166.014000 -864.865000 3750.810000
482.096000 -5.916290 880.810000
532.260000 -291.865000 715.900000
-628.125000 342.405000 1913.780000
-197.160000 487.337000 993.848000
-376.941000 493.571000 2328.980000
342.553000 473.327000 1610.900000
178.412000 -154.684000 3656.730000
-258.385000 489.364000 905.354000
539.356000 391.030000 941.255000
-235.626000 -227.794000 3706.400000
618.503000 413.668000 1584.360000
49.762700 435.461000 1682.710000
574.379000 91.380300 802.336000
-665.133000 488.026000 2432.180000
-576.066000 -359.232000 3814.770000
560.667000 463.030000 1532.390000
601.216000 491.187000 820.986000
-92.139700 481.639000 899.944000
-158.205000 487.652000 1643.090000
237.880000 -94.311600 3646.630000
-25.906000 497.504000 1153.830000
-42.936000 -433.635000 3732.280000
1064.710000 -487.950000 2504.850000
519.646000 -157.438000 1187.620000
-117.314000 235.187000 1571.110000
-634.285000 151.281000 3555.920000
-488.359000 -645.704000 3785.150000
537.952000 -203.447000 855.118000
417.842000 -283.404000 1471.590000
650.844000 -221.850000 3616.180000
-612.630000 383.350000 1311.170000
-146.417000 490.344000 1042.640000
38.625100 -45.116100 3707.350000
468.607000 470.424000 979.453000
-553.691000 515.706000 1807.240000
184.729000 69.800900 1534.990000
-143.935000 -65.252400 3697.460000
152.211000 478.941000 1598.850000
506.547000 -721.950000 3650.030000
138.329000 297.411000 1537.670000
438.005000 -624.080000 3657.630000
778.331000 -540.611000 2775.460000
160.714000 -421.301000 3713.860000
-152.848000 502.097000 1235.670000
-193.562000 481.467000 1805.050000
-535.782000 406.895000 861.596000
605.020000 386.057000 1091.110000
718.589000 461.268000 1611.590000
364.997000 -379.626000 955.643000
378.921000 -655.652000 3666.360000
48.898400 -676.480000 3723.950000
812.624000 -780.801000 2642.220000
-30.871000 96.672700 1559.290000
387.424000 445.476000 1671.630000
59.017900 -767.236000 3721.790000
-634.109000 514.738000 1769.200000
-145.266000 396.025000 1597.610000
395.463000 -103.688000 3627.160000
387.322000 -197.899000 1524.310000
-680.405000 491.987000 1611.700000
418.614000 -22.362000 1501.470000
-667.920000 46.678100 3744.570000
-523.700000 519.128000 2451.960000
-615.932000 514.166000 1892.720000
958.935000 480.112000 2077.860000
279.826000 -889.741000 3685.650000
494.700000 483.946000 1175.420000
-83.774300 -841.794000 3738.520000
581.010000 -162.368000 3610.640000
-193.838000 15.960600 1633.350000
-177.654000 503.655000 1320.010000
1120.930000 463.307000 2097.260000
763.918000 375.916000 1125.900000
581.871000 -63.704200 3615.610000
135.113000 494.043000 1076.250000
-622.103000 335.350000 3026.120000
-654.477000 357.382000 2490.970000
191.656000 169.633000 1524.100000
158.519000 483.269000 916.774000
-82.563400 453.658000 1753.490000
542.294000 -117.732000 917.853000
-494.246000 473.369000 1334.250000
607.388000 -433.739000 3653.540000
995.373000 364.767000 2452.740000
950.707000 379.036000 2374.330000
526.215000 183.187000 1471.420000
1018.830000 -141.956000 2428.910000
-661.800000 -391.853000 3829.780000
-587.447000 477.205000 2749.880000
522.569000 -363.537000 689.065000
534.748000 -182.290000 996.996000
-678.947000 268.491000 2068.760000
-539.455000 516.123000 2318.760000
-626.454000 216.409000 2433.230000
-387.446000 478.921000 2713.750000
265.010000 478.949000 1543.380000
458.206000 -72.008300 1033.250000
292.214000 500.296000 1391.430000
-328.342000 507.542000 2029.050000
-252.632000 498.727000 1243.980000
677.688000 -254.156000 3655.010000
678.753000 334.133000 970.638000
978.457000 -23.079900 2460.690000
71.845100 488.615000 1015.190000
-238.391000 504.397000 1424.570000
481.517000 461.782000 1681.950000
760.643000 -878.526000 2324.720000
473.893000 -162.909000 3620.640000
662.084000 468.597000 873.630000
-456.785000 441.317000 1195.880000
680.075000 -636.644000 3619.640000
453.870000 -281.693000 3619.710000
-274.198000 475.091000 2079.740000
367.324000 -380.419000 851.233000
843.001000 408.053000 1220.090000
-3.483650 491.973000 1059.190000
1059.520000 457.909000 1878.880000
651.840000 -341.002000 3622.810000
-493.848000 503.690000 1568.510000
546.081000 -472.494000 3643.880000
916.241000 443.387000 1339.770000
13.297700 482.062000 1735.380000
911.600000 456.255000 1595.590000
1068.390000 319.861000 2186.520000
154.216000 502.443000 1203.810000
497.680000 487.309000 829.092000
-691.266000 389.874000 1412.780000
-70.086500 378.605000 1578.800000
224.847000 344.855000 1525.810000
788.003000 -517.562000 3616.230000
-581.488000 431.769000 1375.830000
-686.322000 -45.332000 3733.640000
594.844000 421.982000 933.220000
1048.070000 466.049000 1938.330000
464.615000 396.282000 896.919000
-71.508100 491.897000 1078.310000
912.278000 -838.747000 2353.200000
982.887000 98.094400 2471.890000
369.035000 -836.306000 3671.500000
503.197000 -251.869000 3618.690000
-667.324000 -63.927300 3630.090000
737.653000 352.865000 1041.520000
-59.799700 477.939000 1790.980000
536.314000 -592.229000 3647.030000
-570.132000 401.025000 1264.500000
911.831000 -404.094000 2536.910000
-669.872000 268.327000 2423.270000
920.896000 -463.867000 2486.670000
16.730900 411.706000 1607.370000
-575.428000 -410.928000 3811.180000
-568.158000 509.110000 1701.920000
574.585000 -759.484000 3640.600000
943.858000 423.266000 2263.710000
-396.830000 495.129000 1224.390000
-642.739000 373.159000 1001.350000
442.948000 75.729500 933.937000
-158.261000 506.644000 1476.310000
-594.977000 316.518000 2855.860000
-641.004000 515.978000 2112.290000
-385.483000 502.508000 1513.310000
-592.007000 373.880000 1020.170000
119.239000 -327.638000 3687.920000
-476.324000 386.245000 1231.210000
367.640000 493.192000 1449.100000
-526.622000 491.039000 2784.770000
514.183000 504.210000 777.969000
718.427000 -334.428000 3660.470000
732.441000 -759.024000 2718.980000
446.566000 -59.790300 1513.280000
497.327000 147.546000 984.791000
-546.951000 505.865000 1547.970000
-135.753000 420.333000 1641.740000
1114.090000 -529.994000 2475.870000
771.595000 -896.220000 2600.310000
-107.538000 509.040000 1394.210000
-377.489000 500.272000 1435.170000
1043.450000 137.617000 2455.740000
871.019000 -639.702000 2539.100000
-43.263000 444.425000 1717.510000
-348.598000 494.667000 1101.040000
-337.180000 479.606000 2233.700000
-627.629000 -111.560000 2826.290000
451.702000 -407.532000 3684.300000
730.431000 458.635000 1540.400000
1071.510000 -387.963000 2521.530000
661.400000 389.278000 1037.520000
573.906000 -887.596000 3638.760000
-515.658000 357.708000 2936.450000
162.090000 508.279000 1322.660000
240.666000 505.054000 1259.940000
-254.441000 496.195000 1599.120000
-645.480000 -792.839000 3801.550000
450.441000 -269.967000 1422.250000
1120.070000 366.850000 2215.880000
1094.310000 415.509000 1509.140000
-173.254000 482.052000 1702.550000
339.783000 487.558000 1038.730000
-632.441000 415.805000 860.782000
54.306300 171.986000 1543.880000
1117.110000 -448.805000 2514.590000
1000.110000 -263.178000 2448.030000
441.290000 -251.986000 993.331000
665.792000 465.800000 1191.660000
-606.481000 -152.935000 3621.590000
116.069000 475.060000 1710.370000
-432.229000 108.077000 3143.490000
984.271000 -47.286900 2331.030000
82.298900 506.519000 1263.740000
927.983000 -364.760000 2601.620000
-534.395000 491.744000 960.723000
-634.645000 -844.090000 3799.610000
390.242000 68.128100 1502.510000
33.200200 104.477000 1547.970000
474.544000 10.391300 1484.710000
649.446000 -146.922000 3720.850000
-101.145000 490.461000 1593.640000
448.180000 426.244000 833.938000
872.536000 452.763000 1448.800000
325.548000 -402.444000 854.224000
1061.840000 468.375000 2097.780000
466.183000 56.083700 995.189000
-513.519000 480.439000 1386.910000
-552.408000 -136.917000 3723.430000
-647.024000 267.264000 2914.930000
1051.410000 243.935000 2381.960000
-640.432000 293.853000 1903.640000
1042.320000 -300.099000 2534.690000
-397.954000 499.612000 1596.940000
1027.910000 447.006000 1445.450000
518.054000 59.754500 778.207000
-627.255000 517.634000 2271.110000
-327.156000 496.511000 1255.190000
-647.426000 310.100000 3191.550000
-328.194000 503.938000 1930.460000
987.919000 470.624000 1939.250000
383.477000 484.047000 991.545000
92.221000 251.818000 1541.040000
544.925000 425.585000 1194.270000
-240.750000 124.648000 1648.800000
-338.876000 491.863000 1022.870000
499.168000 -195.380000 1417.140000
773.422000 -619.916000 2758.670000
-624.233000 -113.811000 3345.580000
-563.047000 521.085000 2705.220000
-523.916000 500.947000 1470.510000
296.451000 486.049000 1018.330000
314.235000 417.992000 1600.220000
1021.620000 251.198000 2328.720000
793.999000 456.198000 1469.690000
861.523000 -502.101000 2615.240000
-45.264800 485.932000 1621.850000
-690.103000 -61.155700 2652.370000
-416.037000 -449.337000 3781.680000
456.710000 -353.222000 3643.210000
412.582000 -357.980000 1022.880000
413.215000 471.095000 1546.040000
520.759000 479.162000 1129.220000
656.983000 454.606000 1125.720000
785.058000 -685.562000 2721.380000
-645.858000 -710.279000 3802.260000
552.720000 -116.942000 1405.660000
-415.681000 517.958000 2612.750000
572.133000 164.567000 903.490000
1078.460000 450.860000 1584.810000
984.832000 -841.249000 3657.510000
-67.902600 500.864000 1532.300000
529.827000 -296.354000 762.874000
200.454000 480.462000 823.084000
-510.192000 -564.236000 3792.450000
-217.417000 -322.270000 3743.490000
-652.111000 419.592000 1525.210000
-583.671000 -700.038000 3801.840000
260.291000 -599.364000 3687.510000
-437.496000 494.519000 1133.170000
230.037000 -700.236000 3689.590000
509.773000 -425.662000 3668.080000
787.756000 -893.675000 2492.890000
401.005000 -275.091000 1514.060000
-199.554000 97.282400 1643.980000
-492.398000 -400.807000 3812.440000
-614.442000 434.392000 2671.440000
-358.845000 510.641000 2110.840000
244.502000 474.667000 1693.290000
-93.225800 -136.127000 3696.400000
106.525000 401.655000 1568.240000
-540.542000 -842.884000 3792.910000
963.364000 453.129000 1480.700000
-633.359000 269.564000 2627.440000
187.540000 240.822000 1525.760000
-612.957000 489.061000 895.377000
-95.236800 488.256000 985.569000
169.147000 31.321000 1508.350000
190.773000 -379.729000 3704.590000
1059.630000 -659.684000 2646.020000
973.260000 478.500000 2148.270000
980.480000 23.920800 2465.790000
195.494000 506.006000 1407.220000
573.732000 523.051000 795.795000
1008.860000 455.094000 1631.010000
1112.680000 -292.417000 2653.360000
-240.264000 501.554000 1509.950000
620.713000 -104.812000 3670.610000
-358.866000 -86.010000 3721.110000
-210.124000 411.653000 1661.560000
-63.406500 -576.903000 3736.370000
646.240000 465.974000 945.741000
620.693000 397.736000 1239.360000
-558.023000 457.293000 2908.430000
332.551000 474.764000 1543.900000
556.549000 421.269000 1002.870000
297.236000 473.894000 1627.590000
-193.857000 482.217000 830.698000
109.730000 -502.058000 3710.740000
-683.141000 280.046000 2355.470000
-449.844000 437.139000 2778.360000
-627.559000 -348.420000 3811.470000
-527.998000 -293.139000 3768.090000
-659.124000 258.944000 3205.740000
143.943000 496.641000 1122.770000
-483.043000 404.621000 1155.480000
11.067000 478.294000 835.707000
-404.722000 504.464000 2237.050000
622.560000 465.563000 1384.050000
99.412300 476.553000 1666.520000
-310.913000 -344.094000 3759.140000
281.153000 481.819000 820.663000
-42.927400 -637.854000 3735.390000
874.970000 -797.376000 2489.540000
-291.183000 -592.796000 3774.100000
-288.193000 483.335000 2141.660000
-523.319000 -178.170000 3733.710000
-114.639000 499.839000 1189.710000
-337.130000 500.273000 1519.030000
-514.658000 452.168000 984.760000
180.017000 -560.391000 3695.100000
-631.284000 331.909000 3070.810000
-598.228000 525.034000 828.965000
1101.470000 -598.511000 2695.930000
-42.925400 -515.247000 3732.770000
