ply
format ascii 1.0
element vertex 1398
property float x
property float y
property float z
end_header
-807.364000 219.886000 1656.110000
66.768400 354.373000 788.835000
804.347000 178.844000 1497.690000
317.717000 179.717000 1350.930000
-171.792000 326.176000 918.202000
-274.649000 350.212000 775.876000
-927.468000 178.577000 1948.880000
214.972000 -219.064000 934.386000
735.335000 37.487100 1603.390000
581.415000 -663.331000 1524.430000
479.079000 188.382000 1512.580000
-925.732000 -835.387000 3764.630000
710.406000 -374.458000 1565.300000
-305.464000 300.398000 1091.070000
-556.964000 284.933000 1230.050000
852.034000 120.151000 2043.210000
544.030000 187.211000 1689.510000
755.085000 157.937000 1833.850000
-722.398000 -693.633000 3769.340000
-669.050000 -92.724700 1747.140000
-593.047000 -839.605000 3733.200000
209.530000 307.881000 1064.540000
-358.801000 63.810600 1717.780000
652.652000 181.632000 1396.270000
480.051000 -290.063000 815.293000
-37.660200 89.780400 1670.750000
-508.925000 226.693000 1673.990000
296.757000 164.794000 1905.460000
369.198000 198.578000 1627.990000
498.961000 194.972000 1052.250000
459.333000 -428.822000 1323.560000
874.635000 -818.128000 1618.000000
-9.152570 387.999000 633.973000
-613.100000 259.449000 1425.870000
463.321000 329.773000 803.516000
87.962500 209.966000 1038.620000
374.134000 -85.272100 852.718000
-509.961000 -145.418000 1692.070000
246.513000 -478.000000 865.945000
913.475000 -123.179000 1576.580000
-752.276000 -1011.130000 3769.940000
-184.600000 386.817000 626.790000
-503.007000 326.091000 913.332000
-0.831542 -525.430000 1520.310000
-253.663000 -849.526000 3684.650000
-173.938000 180.556000 1800.280000
321.523000 -320.488000 873.914000
-18.796400 -158.525000 1628.560000
369.993000 -17.669400 1001.020000
310.508000 244.837000 844.934000
-257.333000 280.165000 1318.900000
510.154000 -508.726000 1163.050000
234.601000 118.198000 2204.030000
91.846100 -197.142000 1018.040000
-430.106000 -758.301000 3730.280000
-664.564000 297.706000 1124.820000
-788.396000 134.462000 2185.080000
17.634400 -584.784000 1107.540000
558.851000 216.184000 1223.060000
-85.239900 -290.374000 1618.170000
51.726000 256.709000 1471.840000
-38.323100 282.340000 1246.390000
460.712000 -459.435000 1035.440000
366.010000 -109.280000 552.996000
706.471000 129.224000 2196.050000
101.714000 -420.369000 955.789000
-927.950000 206.961000 1734.680000
542.639000 211.964000 915.537000
228.822000 -311.654000 722.944000
-101.060000 -38.404900 1656.070000
-481.845000 377.246000 644.421000
686.638000 174.395000 1700.850000
-228.132000 -285.846000 1594.390000
-414.701000 346.271000 798.445000
820.551000 56.373800 1408.720000
813.608000 -437.587000 1491.430000
223.722000 -76.517400 857.895000
385.005000 156.061000 1224.480000
-36.772700 335.029000 881.397000
158.804000 54.279000 1710.150000
94.923700 22.065600 935.055000
-171.310000 305.298000 1055.210000
105.736000 -410.958000 1556.830000
-411.063000 151.985000 1944.250000
56.246200 188.462000 1735.520000
-685.111000 175.147000 1912.300000
73.448900 -466.034000 1081.080000
371.803000 -367.884000 996.649000
87.354600 326.229000 970.731000
350.269000 50.118500 2420.190000
-325.988000 -1006.190000 3709.830000
900.290000 57.131800 1660.950000
324.847000 86.615500 1068.840000
293.685000 279.967000 1167.820000
-301.734000 186.950000 1769.490000
-637.575000 60.998400 1778.790000
-460.536000 -1012.640000 3734.780000
383.650000 258.555000 610.278000
-80.571000 258.188000 1528.710000
105.915000 -364.316000 1215.370000
-885.211000 259.186000 1406.520000
612.613000 -626.321000 1397.180000
-630.615000 334.950000 870.673000
183.575000 138.742000 1978.800000
-833.240000 280.508000 1266.030000
192.764000 362.148000 761.921000
693.123000 -478.264000 1407.920000
418.347000 21.988500 686.331000
-697.305000 209.544000 1722.700000
676.749000 113.216000 1923.880000
604.497000 -791.729000 1518.110000
-239.066000 -56.946800 1668.160000
373.197000 -286.356000 605.033000
-491.247000 272.780000 1338.320000
132.299000 221.348000 1564.580000
380.967000 273.175000 1054.840000
-80.961800 200.221000 1714.090000
-929.409000 132.449000 2253.240000
699.835000 251.228000 1239.940000
-292.213000 -197.619000 1660.200000
-371.421000 275.268000 1368.020000
29.783600 -92.172000 1000.180000
295.930000 319.151000 974.001000
106.528000 -470.610000 843.156000
577.645000 290.498000 1002.530000
-481.453000 -253.350000 1642.500000
615.615000 79.556400 1659.050000
539.269000 285.396000 1123.090000
101.305000 -339.232000 1432.220000
363.128000 188.171000 1476.280000
350.484000 402.819000 633.617000
319.137000 -136.212000 947.298000
379.613000 138.592000 625.509000
131.851000 -300.185000 964.846000
819.233000 -739.373000 2813.750000
204.426000 186.048000 1066.360000
557.693000 -362.994000 1132.200000
-361.889000 254.105000 1533.430000
22.763800 -630.487000 1220.910000
169.908000 -239.380000 826.751000
-916.685000 103.900000 2449.400000
286.632000 178.118000 1777.730000
-920.406000 154.087000 1445.360000
-529.706000 247.623000 1547.870000
325.139000 122.702000 2289.700000
398.600000 145.879000 2084.730000
-69.143600 294.353000 1134.770000
194.649000 267.781000 1227.770000
-841.325000 -935.404000 3754.600000
217.477000 224.212000 1420.590000
372.280000 334.966000 883.937000
138.495000 167.095000 1814.450000
191.607000 -137.619000 1012.940000
-404.155000 309.043000 1028.790000
806.694000 -757.494000 1537.040000
789.360000 -832.705000 1453.040000
537.710000 -417.560000 2267.440000
-143.519000 280.314000 1301.250000
106.667000 -430.878000 1307.490000
909.572000 168.185000 1779.500000
388.958000 175.086000 1111.080000
76.407900 111.636000 1654.830000
-463.405000 97.963200 1741.880000
-499.991000 126.262000 1880.190000
-589.847000 316.568000 983.933000
-285.067000 289.405000 1207.260000
-825.270000 -765.597000 3772.040000
518.547000 116.166000 2288.670000
12.318300 -371.288000 1605.120000
624.106000 -440.779000 1543.450000
884.837000 -229.646000 1564.220000
801.062000 140.079000 1933.170000
36.128400 267.350000 1342.660000
557.955000 -418.832000 2380.290000
440.217000 -261.917000 709.023000
308.403000 -25.512500 496.296000
-619.191000 -180.535000 1676.350000
903.335000 -435.664000 1428.790000
296.850000 50.548500 941.762000
-676.685000 -934.190000 3747.700000
-428.654000 295.271000 1140.710000
-819.127000 173.992000 1958.780000
128.405000 -40.465000 1017.530000
218.618000 163.728000 1309.580000
-518.745000 -915.831000 3712.580000
178.549000 -189.539000 714.630000
-260.365000 248.809000 1577.710000
-163.109000 154.447000 1904.430000
479.276000 -105.256000 839.337000
411.015000 303.048000 706.774000
847.721000 115.516000 1588.060000
744.948000 197.444000 1585.570000
640.631000 -430.176000 2118.160000
271.316000 -403.051000 758.101000
798.821000 158.910000 1390.830000
-256.077000 313.972000 991.637000
-606.443000 -6.508280 1653.650000
730.430000 -29.798200 1694.570000
809.140000 -323.143000 1562.110000
830.811000 -28.179000 1598.850000
-399.181000 -194.180000 1671.940000
-823.111000 236.576000 1553.460000
-426.137000 -16.069600 1706.090000
640.190000 -417.633000 1340.320000
61.306700 305.069000 1073.990000
490.429000 193.863000 826.516000
252.422000 388.459000 668.526000
360.611000 -186.557000 483.786000
535.263000 -462.952000 2135.030000
579.087000 222.959000 1324.210000
457.874000 167.791000 1884.010000
-598.669000 273.671000 1323.300000
566.707000 188.638000 1451.650000
506.888000 147.478000 2110.050000
-152.687000 269.892000 1456.880000
-336.505000 -794.626000 3709.500000
-920.908000 222.294000 1633.680000
-924.979000 193.524000 1835.830000
174.678000 -432.066000 771.473000
-790.872000 267.820000 1357.630000
-357.942000 362.485000 715.611000
148.635000 201.752000 1155.920000
380.833000 -379.813000 815.615000
268.048000 195.144000 1634.460000
-829.793000 156.334000 2079.840000
-733.366000 288.125000 1201.110000
-246.437000 215.558000 1689.040000
-182.750000 343.167000 819.061000
619.249000 -364.978000 1621.100000
483.388000 -325.227000 913.736000
171.509000 57.039800 879.366000
-678.281000 -782.787000 3753.860000
267.077000 334.367000 824.050000
116.837000 -213.190000 907.881000
694.607000 -275.612000 1590.040000
-441.193000 242.085000 1593.650000
-370.285000 -679.250000 3741.360000
326.218000 140.168000 2171.600000
277.977000 -181.827000 866.938000
362.270000 154.798000 1979.160000
-266.172000 371.072000 679.907000
487.199000 -387.521000 1236.370000
364.008000 106.630000 496.220000
14.942500 241.313000 1132.750000
-865.462000 200.053000 1219.820000
-419.058000 209.224000 1716.370000
288.232000 -269.514000 530.621000
708.292000 188.556000 1480.740000
-262.419000 332.792000 874.945000
197.702000 -48.072000 947.670000
305.487000 -40.877900 906.044000
-577.205000 -76.986300 1714.070000
66.681300 376.430000 694.071000
792.694000 72.154700 1500.530000
-513.287000 195.925000 1767.540000
641.648000 -932.825000 1678.370000
514.087000 306.512000 883.387000
745.291000 57.096700 1809.960000
291.647000 225.201000 1087.820000
105.371000 340.369000 876.558000
-604.420000 218.980000 1686.250000
-758.786000 310.177000 1059.540000
135.750000 194.921000 1462.270000
33.903700 -466.755000 1588.160000
-676.995000 248.039000 1498.220000
497.492000 -502.898000 1259.070000
467.026000 194.682000 1194.780000
472.256000 300.246000 1056.230000
200.844000 163.273000 1886.230000
51.568900 -207.004000 1267.620000
98.885600 206.546000 1651.860000
-556.793000 108.975000 1767.930000
-594.366000 -243.598000 1608.950000
-523.126000 -770.388000 3740.920000
-97.856800 377.905000 664.299000
-274.743000 111.154000 1720.610000
91.585200 -290.629000 1158.710000
284.029000 -285.278000 795.434000
671.406000 -829.346000 1464.160000
-125.291000 122.160000 1740.840000
718.792000 180.912000 1330.080000
639.521000 119.101000 1776.230000
519.608000 194.787000 1599.790000
-701.688000 262.452000 1396.890000
-697.019000 186.628000 1820.660000
547.625000 -478.017000 2450.910000
395.872000 289.391000 516.813000
440.522000 -352.231000 1056.450000
46.042400 -193.619000 1551.680000
-280.028000 21.195400 1695.080000
900.649000 -431.308000 1521.270000
95.564100 235.549000 1251.440000
286.647000 59.044000 525.391000
207.648000 124.980000 2113.780000
-615.256000 125.640000 1873.330000
-12.664100 362.486000 742.323000
250.515000 -368.691000 654.731000
-189.755000 361.506000 729.714000
-19.081000 2.538250 1652.210000
-569.967000 295.645000 1137.480000
-733.457000 232.045000 1585.130000
-76.499300 238.082000 1619.990000
137.718000 24.842900 1626.850000
414.939000 -46.689600 923.309000
716.874000 129.513000 2103.740000
-361.174000 121.111000 1800.400000
-314.195000 -920.346000 3688.300000
60.139200 155.661000 1855.620000
-9.700630 -244.329000 1605.910000
913.446000 118.195000 2107.840000
393.264000 -296.081000 788.893000
-645.698000 285.409000 1227.720000
171.716000 -142.871000 920.603000
553.614000 -421.654000 1321.540000
-89.603400 320.930000 954.836000
69.224100 -258.249000 1416.460000
-470.350000 358.123000 730.819000
174.752000 324.948000 983.439000
-469.282000 -836.954000 3719.830000
-189.464000 273.704000 1376.130000
762.065000 179.017000 1745.860000
168.173000 54.919700 1075.740000
-660.679000 155.596000 1995.770000
-832.846000 206.954000 1738.710000
-95.246100 -204.045000 1635.980000
341.122000 189.946000 1710.030000
266.156000 63.890000 2438.310000
172.368000 290.978000 1146.850000
399.297000 -350.431000 911.468000
581.892000 216.281000 1067.920000
-174.065000 255.717000 1539.980000
-420.023000 329.950000 887.764000
-463.295000 -680.646000 3750.200000
75.368200 -499.086000 918.884000
663.874000 -686.939000 1503.910000
906.598000 138.017000 1978.700000
298.403000 7.352630 1047.190000
379.664000 -41.073300 604.065000
99.206200 -403.598000 1138.880000
-225.127000 296.808000 1122.040000
37.863900 -160.956000 1074.530000
-360.855000 167.276000 1876.060000
895.896000 137.280000 1696.680000
713.011000 84.768900 1996.380000
-342.707000 336.377000 844.174000
729.750000 -454.588000 1485.070000
-899.531000 169.383000 2031.660000
357.887000 -210.079000 566.184000
-95.722400 -372.517000 1573.490000
-111.514000 44.024400 1676.560000
-929.532000 -746.119000 3778.950000
-692.458000 92.624400 1932.700000
-342.487000 264.308000 1451.070000
83.852400 -535.185000 1548.800000
202.972000 -129.939000 794.965000
352.212000 62.132400 651.124000
-755.615000 112.585000 2109.780000
-165.802000 200.358000 1716.080000
457.346000 178.296000 1431.200000
-837.563000 126.360000 2253.700000
334.317000 244.111000 931.748000
286.761000 166.078000 1247.600000
-495.333000 340.321000 826.896000
458.745000 -454.311000 1119.950000
446.422000 190.479000 1276.480000
617.312000 153.487000 1967.990000
599.533000 -813.835000 1599.240000
-471.898000 287.096000 1212.180000
303.335000 305.368000 1056.390000
103.568000 -248.194000 1083.450000
-624.401000 -21.286200 1755.200000
496.725000 272.114000 1219.250000
897.319000 -92.680500 1655.270000
379.823000 347.966000 800.530000
838.395000 162.590000 1829.080000
-639.407000 -703.185000 3764.200000
-35.946100 -510.164000 1602.610000
912.992000 -28.014300 1584.270000
127.096000 140.104000 1726.540000
-648.769000 309.565000 1042.550000
-146.613000 -280.390000 1562.790000
-529.571000 264.485000 1411.660000
-100.909000 -360.900000 1658.480000
-216.263000 -922.099000 3735.390000
151.449000 58.482600 985.404000
-91.180100 -119.287000 1642.510000
667.145000 243.763000 1315.900000
73.627100 -487.218000 1001.280000
617.652000 192.051000 1652.590000
-0.900114 -78.453300 1636.950000
452.526000 -281.438000 626.999000
646.777000 -483.167000 1475.740000
-479.339000 313.259000 992.943000
675.034000 20.670900 1660.640000
523.086000 203.048000 1130.370000
7.301560 327.244000 950.247000
-445.566000 -94.624800 1691.880000
377.333000 309.522000 976.294000
435.044000 408.438000 623.393000
366.451000 171.185000 1862.870000
775.538000 79.974100 1883.760000
-842.263000 -844.278000 3757.520000
270.638000 149.688000 1981.440000
447.389000 231.619000 1104.920000
-101.952000 174.330000 1838.060000
13.630400 242.828000 1033.060000
-924.468000 -926.439000 3760.560000
-883.480000 153.575000 1367.440000
-558.009000 165.732000 1921.980000
335.580000 198.171000 1554.220000
-758.099000 -933.747000 3746.930000
-862.883000 247.288000 1483.380000
-252.273000 173.578000 1832.030000
-799.253000 -687.494000 3793.360000
668.474000 153.742000 1843.120000
331.241000 -195.790000 1000.190000
297.042000 -104.741000 839.746000
281.113000 147.018000 1103.980000
45.117400 -552.080000 1039.460000
583.738000 176.568000 1768.340000
395.220000 337.329000 621.475000
349.709000 -3.362200 850.363000
95.511600 256.199000 1402.840000
-113.610000 335.838000 858.661000
68.999700 -264.525000 1496.190000
429.342000 -417.406000 971.662000
98.928000 -342.493000 1516.210000
589.490000 -603.886000 1471.670000
52.436000 -516.095000 1139.580000
-29.020600 264.103000 1468.110000
-601.713000 -918.753000 3725.420000
719.924000 -423.425000 2113.910000
199.622000 81.137900 2031.480000
-538.453000 -219.716000 1695.320000
-290.330000 272.500000 1390.780000
54.542900 -150.544000 951.819000
-349.082000 293.042000 1156.880000
454.412000 248.971000 773.223000
148.322000 -283.905000 888.615000
807.395000 -487.038000 2906.890000
551.266000 212.812000 995.046000
-334.603000 282.446000 1297.380000
216.734000 -354.751000 788.712000
115.930000 -11.404500 1700.860000
808.639000 38.260100 1635.310000
-5.564680 201.885000 1688.350000
288.158000 181.695000 1423.880000
719.277000 -410.733000 1375.710000
7.595320 251.181000 1536.780000
316.380000 94.338100 2364.720000
-764.530000 179.397000 1902.530000
279.771000 296.229000 895.779000
104.106000 -402.743000 1032.290000
-599.493000 249.898000 1510.560000
494.429000 43.751300 690.254000
-870.420000 140.186000 2182.080000
-218.128000 -228.147000 1649.800000
-175.699000 -11.221200 1674.140000
129.435000 -358.228000 910.803000
421.652000 189.781000 1040.990000
433.667000 26.571300 607.250000
372.704000 192.132000 568.919000
218.531000 -247.116000 766.012000
189.671000 71.797800 1929.740000
269.824000 -27.933700 974.331000
169.259000 221.401000 1289.750000
-246.593000 -133.875000 1657.870000
718.779000 118.568000 1768.830000
839.258000 -511.475000 1510.340000
209.907000 179.202000 1787.240000
407.071000 -264.250000 538.641000
-417.532000 396.386000 606.084000
-257.719000 -791.559000 3742.050000
199.812000 -419.987000 845.397000
-865.458000 182.867000 1883.800000
-164.427000 -88.257000 1653.380000
828.112000 189.949000 1592.640000
165.257000 85.804300 1780.160000
-214.466000 123.950000 1767.640000
531.480000 146.910000 2187.920000
-349.925000 -16.003200 1697.230000
134.630000 312.124000 1048.780000
781.584000 -397.131000 1549.070000
-330.054000 311.498000 1010.060000
205.952000 -252.035000 681.142000
166.399000 348.516000 832.118000
-569.025000 235.758000 1611.710000
133.911000 -88.104700 956.858000
108.650000 -358.721000 1330.360000
139.891000 234.697000 1088.310000
-879.400000 268.862000 1331.700000
752.492000 193.052000 1660.660000
-669.942000 -1010.950000 3768.390000
-208.268000 285.467000 1261.850000
13.577000 133.559000 1764.750000
628.147000 232.167000 1197.940000
792.564000 -757.793000 1462.970000
561.606000 -398.144000 2452.610000
-762.337000 200.158000 1764.270000
421.647000 -416.903000 1213.870000
44.563600 43.444300 1653.910000
788.866000 -562.012000 1538.080000
87.833600 -287.316000 1240.450000
-47.041800 347.210000 807.819000
755.764000 -32.907600 1618.860000
-664.838000 -860.573000 3737.160000
-297.840000 -258.880000 1617.630000
447.121000 -33.735700 989.486000
883.822000 -821.108000 1532.260000
393.319000 373.058000 688.012000
196.657000 171.928000 1238.770000
-398.217000 -969.025000 3722.270000
499.284000 -414.360000 1384.660000
245.555000 -125.465000 963.212000
-751.443000 -774.031000 3762.040000
32.424600 341.822000 855.888000
-62.154000 276.505000 1316.350000
-94.150400 302.636000 1065.540000
-99.592200 288.593000 1201.660000
-927.038000 119.248000 2356.860000
137.547000 373.341000 713.757000
349.508000 -320.274000 544.150000
414.269000 184.451000 1704.060000
446.001000 333.615000 874.932000
313.904000 -102.975000 493.680000
132.071000 -159.537000 859.717000
131.459000 -479.655000 1560.130000
-595.590000 -761.382000 3747.690000
184.752000 168.605000 1378.450000
371.964000 -36.520400 531.351000
255.328000 81.158100 1034.980000
-738.149000 297.869000 1128.410000
-695.616000 223.447000 1651.130000
29.596000 250.620000 1224.260000
-306.622000 -704.658000 3713.570000
39.512800 -311.629000 1636.860000
851.522000 -379.084000 1539.960000
243.424000 103.832000 2287.120000
-142.792000 295.189000 1126.670000
-857.505000 -1003.740000 3781.760000
195.335000 231.004000 1489.330000
761.188000 -781.114000 2825.990000
-538.927000 178.670000 1838.800000
-557.473000 333.422000 866.314000
530.993000 315.990000 952.908000
697.579000 -444.546000 1554.450000
-264.160000 -971.837000 3693.540000
-422.766000 277.256000 1307.300000
224.078000 49.890500 927.848000
633.507000 188.007000 1477.810000
-855.033000 295.520000 1199.390000
-420.500000 372.151000 680.852000
577.318000 179.593000 1381.540000
572.308000 187.686000 1541.960000
517.963000 210.032000 1289.620000
58.599300 -26.583500 1021.570000
671.935000 105.355000 1710.690000
656.211000 -419.940000 1425.640000
212.845000 189.884000 1589.320000
70.100300 -409.914000 1619.810000
-504.853000 -58.017500 1705.590000
-618.746000 35.359900 1712.920000
-499.401000 293.331000 1144.000000
-408.793000 320.011000 957.704000
880.871000 163.549000 1632.730000
831.140000 175.748000 1759.870000
77.244100 -348.890000 1582.950000
735.998000 180.447000 1414.380000
144.056000 93.083400 1648.720000
-154.615000 314.896000 985.495000
-490.052000 157.024000 1942.610000
-49.857300 183.488000 1779.740000
228.003000 -197.976000 815.233000
737.697000 108.066000 2255.210000
-464.157000 122.243000 1819.620000
385.267000 -293.240000 675.913000
10.843300 265.358000 1410.440000
-581.577000 305.249000 1067.470000
-156.364000 -237.266000 1618.700000
388.527000 201.748000 653.728000
-21.428500 278.299000 1083.730000
-349.622000 205.134000 1719.930000
861.508000 -419.188000 1375.610000
-643.690000 322.891000 940.261000
75.748300 215.397000 1111.030000
105.211000 -503.114000 1490.930000
571.244000 274.618000 1183.850000
647.154000 -751.906000 1477.960000
849.409000 -797.969000 1453.420000
428.149000 355.668000 748.501000
-444.898000 167.954000 1885.540000
521.743000 -417.176000 2200.010000
260.637000 189.346000 1703.020000
-226.860000 190.032000 1751.870000
847.383000 38.588100 1469.760000
-397.275000 -835.054000 3710.590000
-522.821000 -984.262000 3743.030000
-377.415000 300.571000 1091.700000
613.596000 -726.098000 1536.860000
406.540000 -396.196000 1099.090000
684.667000 196.974000 1618.710000
-534.816000 256.990000 1479.930000
-439.854000 270.728000 1383.880000
-57.929600 126.043000 1728.040000
647.582000 -869.250000 1649.750000
868.731000 33.181000 1602.490000
-341.238000 146.404000 1939.250000
120.037000 -404.368000 1470.870000
814.824000 45.068700 1559.430000
-460.784000 253.082000 1528.940000
606.923000 -384.614000 1177.410000
533.114000 -354.946000 1068.850000
-661.490000 83.443000 1845.870000
371.410000 106.808000 564.148000
240.317000 291.926000 1127.030000
347.287000 214.234000 1049.100000
262.576000 264.995000 1231.430000
-16.809400 286.119000 1177.440000
-470.520000 -199.891000 1683.020000
257.792000 170.209000 1850.080000
127.652000 -254.724000 1014.910000
633.909000 -306.098000 1591.040000
404.871000 -316.659000 852.320000
254.151000 -449.638000 804.098000
401.952000 -236.262000 643.564000
114.073000 -420.093000 887.439000
94.471900 -436.242000 1241.270000
404.961000 161.049000 1925.330000
-920.177000 223.911000 1456.980000
253.810000 367.011000 734.093000
-879.701000 215.226000 1688.560000
-729.562000 168.956000 1962.090000
490.373000 266.349000 835.261000
618.593000 -498.331000 2270.890000
545.908000 -460.662000 2329.390000
540.086000 274.717000 1055.680000
-766.386000 281.506000 1262.750000
112.751000 24.234200 1027.930000
-876.477000 198.269000 1788.700000
68.113400 239.384000 1570.080000
61.906200 -73.938000 942.950000
455.953000 23.749000 741.567000
-630.835000 202.975000 1746.910000
176.260000 -303.412000 804.060000
-892.804000 252.187000 1256.340000
786.285000 181.315000 1327.880000
387.406000 254.107000 1124.520000
605.525000 -855.478000 1536.980000
-498.715000 280.407000 1272.640000
361.851000 19.021300 496.264000
645.992000 -229.081000 1599.610000
417.789000 -171.832000 577.750000
-237.627000 304.990000 1054.720000
47.898600 -591.267000 1267.990000
-344.109000 -157.514000 1669.690000
346.041000 148.633000 2043.040000
25.000100 -549.021000 1576.500000
-820.261000 256.915000 1423.420000
-45.396600 -344.477000 1623.240000
-344.182000 349.094000 779.268000
665.594000 -457.068000 2221.140000
-663.066000 -152.259000 1719.220000
313.311000 67.578800 1003.280000
661.389000 88.739100 1851.230000
694.104000 248.416000 1174.430000
17.590300 122.876000 1684.280000
745.080000 -316.493000 1575.190000
-327.258000 246.003000 1588.690000
32.894500 316.394000 1015.830000
-297.116000 256.746000 1523.040000
773.620000 -426.456000 1440.570000
34.653300 -197.333000 1617.280000
-117.405000 186.967000 1766.900000
-283.663000 235.776000 1637.510000
633.180000 -651.451000 1453.900000
758.015000 -716.513000 2813.750000
214.326000 245.505000 1169.580000
-884.755000 231.935000 1576.930000
512.921000 19.605600 827.319000
72.873800 145.467000 1792.490000
406.530000 145.038000 2157.230000
867.340000 -292.552000 1555.420000
-906.550000 214.239000 1362.900000
-468.067000 35.647400 1723.860000
112.435000 297.912000 1113.520000
626.218000 233.871000 1262.810000
234.896000 328.257000 953.865000
-757.993000 211.488000 1699.800000
-436.145000 229.097000 1656.990000
227.629000 -150.426000 1065.210000
502.021000 -426.561000 2423.170000
269.097000 132.474000 2142.260000
172.528000 -80.142600 897.573000
-661.793000 271.510000 1346.920000
-413.194000 -248.325000 1637.700000
-298.356000 128.743000 1837.700000
-350.248000 -233.257000 1656.470000
777.438000 -482.777000 1519.810000
418.765000 -332.165000 970.711000
130.366000 359.083000 779.638000
-222.940000 136.988000 1880.540000
470.097000 148.909000 2049.580000
186.625000 -197.651000 872.863000
83.504400 225.014000 1177.790000
129.722000 -413.722000 815.197000
-458.939000 -938.097000 3720.350000
473.270000 287.743000 1122.500000
76.277500 -456.268000 1170.580000
418.094000 -408.307000 1034.830000
295.927000 -273.553000 467.084000
-294.411000 -89.105300 1671.650000
308.873000 263.861000 1007.910000
253.817000 -131.877000 898.813000
-367.937000 183.669000 1786.060000
142.204000 332.545000 928.989000
750.681000 259.350000 1277.640000
361.879000 -11.248200 923.749000
-518.013000 -294.729000 1674.420000
-122.040000 248.961000 1576.760000
679.961000 139.181000 1995.020000
330.732000 284.249000 1109.810000
224.342000 179.051000 1464.880000
186.248000 230.102000 1362.740000
117.137000 -362.022000 975.318000
222.773000 142.985000 2040.040000
-448.148000 300.853000 1080.680000
-251.036000 386.442000 620.334000
-912.590000 92.846500 2511.580000
816.588000 112.710000 1437.080000
-505.677000 239.361000 1605.630000
-593.095000 340.773000 814.781000
-736.546000 243.274000 1518.360000
-237.463000 -863.828000 3746.690000
-622.437000 116.134000 1805.240000
314.744000 379.408000 683.159000
842.318000 138.108000 1980.690000
-18.442700 -427.644000 1603.470000
436.136000 -67.819800 867.981000
250.395000 316.473000 1017.310000
711.968000 44.809200 1717.200000
845.697000 152.530000 1890.720000
-400.401000 107.218000 1736.010000
-572.171000 -141.299000 1699.250000
166.735000 -3.885680 979.600000
273.979000 49.394000 1086.750000
-232.991000 323.150000 931.393000
327.741000 340.868000 838.256000
339.471000 -138.864000 1024.930000
-838.309000 168.227000 2018.100000
-531.321000 -848.853000 3728.480000
837.779000 -442.660000 1433.980000
721.087000 242.548000 1347.510000
199.427000 377.232000 699.740000
420.306000 -116.304000 821.782000
-335.063000 -861.827000 3695.140000
343.266000 132.485000 1110.120000
647.659000 -388.218000 1570.590000
-115.256000 221.973000 1666.000000
-88.289100 268.536000 1448.920000
469.408000 -298.409000 754.664000
420.000000 309.811000 1021.400000
-232.817000 -907.107000 3674.630000
133.497000 276.770000 1222.300000
98.659900 242.618000 1509.900000
-40.243700 372.924000 687.735000
118.601000 -401.951000 1406.060000
272.584000 -176.237000 938.762000
283.063000 230.564000 898.627000
-98.237600 104.479000 1686.270000
-131.063000 274.085000 1396.610000
509.212000 -376.716000 1293.160000
734.246000 -806.254000 1462.480000
555.609000 99.540000 2339.950000
226.750000 228.928000 1104.890000
94.024400 249.719000 1327.180000
30.087800 -125.774000 1609.660000
-655.293000 -94.146500 1686.920000
-558.049000 210.260000 1727.510000
649.032000 174.633000 1749.750000
644.476000 134.272000 1663.670000
293.221000 119.917000 2237.090000
588.218000 220.096000 1152.620000
91.476500 -476.657000 1607.260000
575.337000 -577.488000 1396.490000
-583.432000 325.114000 923.495000
603.874000 159.273000 1908.410000
206.705000 -142.218000 856.163000
559.758000 260.338000 952.380000
-627.390000 160.756000 1926.580000
-399.059000 258.148000 1485.030000
672.635000 137.962000 2145.020000
627.023000 185.507000 1341.020000
59.862200 333.235000 916.574000
-642.803000 179.600000 1850.130000
-519.755000 69.258600 1740.160000
436.748000 264.191000 1229.490000
-4.273880 276.084000 1297.200000
-623.360000 292.031000 1171.480000
538.150000 -475.814000 2194.420000
-368.033000 -736.086000 3719.830000
-156.501000 373.292000 679.048000
245.190000 172.293000 1378.830000
313.836000 64.974600 579.129000
18.882200 176.598000 1809.170000
90.437200 392.441000 640.265000
158.853000 193.177000 1616.190000
830.099000 111.399000 1530.450000
872.024000 -71.717800 1591.760000
122.811000 -317.906000 1022.200000
326.216000 -125.350000 888.406000
598.526000 -429.668000 1490.010000
320.908000 6.851110 976.082000
168.823000 4.473710 1042.850000
677.716000 -445.122000 2163.150000
-795.515000 291.371000 1206.990000
821.752000 -255.867000 1570.800000
370.006000 158.267000 1166.320000
41.166200 -156.906000 1009.990000
227.756000 157.211000 1939.520000
-564.707000 123.540000 1841.100000
512.962000 305.600000 1012.000000
25.037000 -598.128000 1170.570000
-803.468000 -980.083000 3769.170000
496.358000 250.144000 1162.910000
158.232000 181.093000 1757.270000
-701.476000 305.330000 1075.590000
72.202500 -201.455000 1103.170000
-885.811000 -785.102000 3768.190000
-537.549000 311.843000 1012.020000
336.384000 176.328000 1810.350000
-286.583000 293.837000 1147.110000
-208.922000 269.093000 1432.090000
561.668000 -439.288000 1377.700000
370.150000 -368.911000 1055.980000
423.782000 294.394000 1090.480000
105.350000 -344.044000 1136.900000
-39.719300 248.366000 1572.440000
34.457900 -65.496100 1059.260000
296.231000 151.815000 1189.440000
169.728000 27.098000 1775.560000
303.002000 -174.004000 483.385000
-549.801000 272.746000 1356.180000
-882.681000 128.451000 2291.420000
-230.796000 257.245000 1524.860000
316.956000 33.091700 889.462000
327.046000 141.331000 2100.440000
-405.448000 -135.265000 1678.530000
-97.873500 282.914000 1264.600000
-606.974000 -218.060000 1719.660000
205.415000 -188.081000 986.589000
524.676000 175.927000 1412.910000
-867.444000 -725.306000 3776.550000
296.249000 180.185000 1050.770000
157.502000 167.333000 1308.680000
255.352000 -145.800000 823.926000
-412.378000 356.756000 738.205000
-750.862000 183.887000 1843.200000
275.670000 -227.693000 778.695000
-715.042000 -890.176000 3734.290000
-524.895000 359.602000 710.191000
388.451000 306.473000 572.470000
593.133000 -472.672000 1445.130000
-143.214000 134.807000 1849.440000
-104.763000 131.175000 1799.050000
437.334000 -421.953000 1269.730000
638.935000 44.622000 1709.580000
-513.501000 -709.936000 3743.890000
48.502900 254.886000 1279.710000
-224.585000 235.012000 1631.160000
162.726000 -374.286000 779.696000
252.905000 -368.752000 712.737000
409.584000 326.771000 930.558000
101.217000 -328.220000 1281.640000
353.318000 -327.098000 641.131000
197.596000 184.362000 1127.630000
10.584400 349.448000 802.709000
353.766000 -352.805000 772.161000
-857.394000 225.420000 1627.590000
594.309000 -464.796000 2117.690000
248.872000 -46.426900 916.304000
505.541000 -84.148800 886.211000
-231.088000 290.518000 1184.150000
111.944000 -448.441000 1372.540000
188.501000 -198.246000 772.034000
-334.408000 112.166000 1737.560000
-651.595000 277.747000 1288.540000
-174.257000 114.981000 1705.660000
-300.711000 359.690000 724.489000
140.146000 216.335000 1220.590000
-790.236000 230.364000 1602.210000
600.669000 184.387000 1706.880000
-285.468000 283.090000 1267.760000
340.281000 -153.090000 525.693000
-240.019000 342.349000 821.759000
598.533000 -388.912000 1307.480000
380.027000 18.329700 625.731000
-638.166000 -39.240900 1702.530000
801.961000 -51.576400 1649.610000
498.596000 106.064000 2341.420000
84.832500 -72.787300 999.144000
667.353000 -438.785000 1505.320000
378.114000 246.178000 551.134000
-556.946000 -255.014000 1654.350000
363.394000 155.766000 525.404000
-758.022000 260.875000 1406.260000
435.269000 173.207000 1831.890000
-475.984000 209.466000 1719.530000
-19.334700 273.360000 1354.300000
517.261000 -481.824000 2402.850000
393.885000 -301.056000 731.662000
-930.301000 141.142000 2197.000000
-5.749340 189.430000 1744.360000
-727.776000 102.893000 2031.720000
-579.328000 55.221600 1748.720000
320.732000 14.399600 542.656000
-807.905000 -891.490000 3741.040000
125.289000 253.460000 1146.480000
815.777000 176.534000 1442.110000
-203.691000 333.470000 870.933000
-882.375000 -884.365000 3754.900000
-410.437000 40.264200 1718.260000
-322.524000 372.272000 672.376000
271.092000 20.994300 486.309000
-119.621000 -307.749000 1664.810000
-407.604000 123.214000 1832.730000
451.154000 142.339000 2118.090000
-477.893000 178.406000 1834.800000
889.847000 -486.649000 1506.740000
-337.185000 287.761000 1229.090000
392.499000 383.183000 588.682000
271.808000 192.754000 1578.220000
530.469000 208.530000 1348.760000
372.902000 148.110000 2202.210000
-873.558000 175.258000 1972.720000
-383.438000 245.751000 1588.150000
474.299000 -476.142000 1191.460000
275.096000 -145.937000 1014.480000
115.939000 189.509000 1702.460000
723.319000 -230.043000 1605.530000
126.350000 -236.292000 962.020000
276.183000 -55.398200 860.572000
55.033200 279.835000 1126.030000
907.722000 125.714000 2042.690000
-296.435000 -34.339300 1682.950000
-61.338100 -463.851000 1578.290000
-46.189200 -47.255100 1647.010000
49.867800 201.020000 1681.180000
-392.902000 266.032000 1418.780000
704.706000 -10.826600 1624.220000
869.711000 181.370000 1719.880000
412.497000 151.897000 2013.600000
-150.664000 284.673000 1242.530000
86.329300 -164.733000 900.751000
533.329000 -528.451000 1224.790000
339.926000 -338.796000 961.340000
462.528000 187.158000 778.807000
299.755000 290.097000 814.402000
-396.755000 290.620000 1186.060000
264.139000 -273.509000 744.822000
-750.453000 222.319000 1641.900000
-14.192600 -298.953000 1616.490000
340.885000 186.308000 1401.030000
-688.264000 239.868000 1552.020000
331.821000 295.226000 869.666000
300.607000 49.586700 2393.580000
-637.670000 226.600000 1641.450000
-287.372000 321.722000 942.033000
397.844000 251.237000 676.883000
308.173000 189.188000 1483.120000
630.615000 170.436000 1806.350000
620.347000 -766.076000 1574.520000
-301.558000 219.848000 1687.500000
519.663000 251.498000 882.993000
865.178000 101.178000 1638.420000
98.277400 61.092900 1640.020000
-922.589000 183.999000 1894.230000
126.388000 -452.953000 1499.460000
775.032000 141.562000 1882.530000
583.920000 191.425000 1609.050000
692.544000 -496.816000 1503.120000
-227.685000 7.210800 1685.330000
632.317000 -642.971000 1513.790000
498.958000 -315.439000 860.282000
-576.983000 -20.957400 1727.330000
-244.977000 358.701000 730.375000
364.492000 -79.756500 498.329000
-539.827000 320.108000 956.463000
-616.826000 -243.684000 1670.060000
-680.678000 291.243000 1176.890000
912.937000 -183.705000 1574.790000
437.833000 165.037000 1324.340000
-102.794000 310.865000 1007.110000
-736.468000 269.468000 1351.150000
-199.131000 279.639000 1315.550000
-128.792000 346.267000 805.417000
-211.456000 372.125000 678.124000
681.933000 -330.162000 1580.450000
-713.279000 252.851000 1453.040000
431.104000 168.710000 1384.150000
752.049000 -444.019000 1549.800000
320.562000 -299.527000 598.386000
167.350000 130.335000 1858.310000
-559.883000 279.647000 1284.330000
-701.061000 283.290000 1244.940000
-461.098000 -298.008000 1666.400000
321.927000 193.411000 1659.060000
512.293000 178.521000 1465.950000
353.144000 294.277000 919.756000
218.441000 345.778000 847.666000
-266.706000 125.702000 1793.620000
289.774000 236.228000 962.337000
-55.925200 217.895000 1669.310000
58.657500 -519.464000 1080.630000
-41.261800 -208.175000 1632.910000
-285.560000 -763.523000 3704.910000
374.232000 363.188000 738.295000
219.489000 -1.168370 963.606000
648.625000 71.610400 1801.540000
140.825000 55.372400 932.487000
131.316000 -215.076000 855.846000
-807.009000 244.846000 1498.410000
392.076000 -172.434000 530.374000
-346.530000 -956.403000 3712.020000
848.853000 -441.271000 1532.240000
-894.058000 185.417000 1409.560000
559.805000 -359.197000 2415.480000
-808.621000 148.394000 2128.660000
-205.306000 311.274000 1009.170000
-324.801000 177.046000 1817.480000
13.042300 372.961000 695.270000
393.138000 223.562000 1080.670000
164.179000 301.108000 1092.400000
86.639000 316.453000 1025.260000
97.474500 -411.195000 1084.750000
-590.038000 170.313000 1858.150000
621.441000 -839.368000 1488.560000
470.620000 127.576000 2267.940000
-305.999000 68.292100 1710.980000
-188.930000 170.346000 1850.500000
42.345300 363.320000 739.718000
-55.835500 39.150800 1664.680000
419.774000 184.624000 1172.150000
235.196000 -314.119000 670.049000
-104.398000 275.873000 1348.900000
-826.798000 272.379000 1318.270000
779.959000 -48.505200 1701.210000
48.510400 -535.960000 1503.410000
720.430000 -425.534000 1441.500000
-511.710000 115.632000 1795.340000
-500.495000 349.099000 774.703000
267.385000 241.573000 1136.730000
-841.309000 264.417000 1375.220000
-129.077000 262.807000 1507.560000
-248.583000 67.992000 1702.270000
538.525000 -392.832000 1251.940000
-38.798000 -495.003000 1541.500000
-460.450000 191.231000 1767.680000
-870.745000 153.886000 2124.570000
-215.921000 350.915000 774.562000
828.051000 162.981000 1542.340000
153.081000 195.765000 1054.930000
368.559000 -114.287000 808.831000
301.772000 172.711000 1297.850000
504.721000 239.175000 1096.450000
203.631000 397.867000 650.602000
-594.323000 241.352000 1562.420000
352.182000 161.026000 1923.910000
-292.401000 340.934000 828.157000
-720.740000 -969.099000 3765.290000
710.403000 125.331000 2035.790000
-390.702000 -53.059600 1693.500000
890.510000 158.872000 1842.930000
492.908000 202.633000 1243.910000
-614.665000 -114.443000 1714.660000
-205.014000 245.533000 1583.510000
-886.712000 -960.681000 3774.290000
281.093000 355.599000 777.801000
-459.678000 322.173000 945.156000
848.484000 -791.326000 1505.400000
-637.518000 -967.450000 3757.900000
372.959000 73.205500 604.303000
330.396000 -57.731400 860.881000
-177.272000 -284.015000 1608.020000
75.064000 135.608000 1729.180000
-193.722000 222.794000 1673.110000
558.447000 -379.464000 1196.310000
471.947000 192.553000 1142.800000
-764.765000 -725.631000 3776.510000
188.998000 60.964300 1028.230000
-444.108000 283.633000 1256.200000
540.438000 -475.684000 2279.740000
-519.966000 289.088000 1191.740000
375.771000 177.994000 1527.810000
-373.035000 377.271000 658.288000
711.903000 -493.986000 1454.790000
-661.674000 255.347000 1446.150000
-457.350000 -144.877000 1684.680000
-678.782000 196.262000 1772.810000
61.715400 -359.549000 1631.490000
-241.114000 276.114000 1370.180000
-617.957000 269.163000 1374.870000
173.220000 240.637000 1130.880000
-419.916000 -707.372000 3729.120000
371.946000 -52.507300 892.955000
768.146000 -269.618000 1578.180000
29.246900 225.375000 1085.470000
-871.663000 108.304000 2398.580000
82.343200 -288.578000 1376.440000
392.120000 300.362000 657.728000
-471.200000 333.588000 872.247000
-613.742000 298.920000 1109.970000
405.446000 -387.456000 870.425000
-786.827000 167.819000 2013.130000
190.479000 -297.471000 754.547000
-605.408000 281.677000 1259.810000
-41.437300 326.102000 932.043000
-791.228000 -813.758000 3757.250000
596.883000 -606.421000 1352.210000
586.699000 68.949100 2388.870000
-816.125000 179.321000 1901.560000
-288.426000 306.385000 1040.060000
630.051000 134.409000 1723.660000
-562.882000 -952.317000 3737.660000
-651.901000 315.924000 991.544000
-312.472000 330.231000 886.771000
355.592000 180.874000 1758.600000
39.348600 385.262000 651.348000
-106.681000 -244.269000 1605.970000
-690.579000 -733.767000 3764.340000
-120.675000 326.695000 912.432000
-131.148000 384.447000 625.663000
-773.302000 150.713000 2080.190000
76.868200 -246.097000 1128.210000
95.637900 364.697000 742.236000
-196.090000 262.501000 1483.270000
-706.516000 -831.046000 3741.930000
-634.631000 -810.106000 3738.070000
913.460000 -270.906000 1550.210000
122.513000 206.231000 1402.580000
851.366000 -69.224700 1638.520000
112.292000 -291.074000 1111.960000
478.538000 325.674000 914.629000
87.213400 -4.214980 1061.770000
-665.613000 122.252000 1900.950000
406.358000 340.145000 843.489000
-111.603000 -333.926000 1615.350000
396.259000 -379.345000 953.422000
-305.015000 276.853000 1338.500000
366.333000 268.975000 1006.210000
614.684000 -424.390000 1270.160000
-294.904000 -822.067000 3696.530000
-41.401900 -109.930000 1637.140000
405.222000 -403.857000 1166.180000
450.352000 185.497000 1082.830000
150.561000 187.297000 1531.440000
-874.949000 186.394000 1328.110000
116.925000 -48.274500 1066.410000
103.943000 348.316000 826.391000
464.211000 30.152000 647.691000
414.363000 -257.666000 597.290000
489.503000 139.203000 2160.170000
790.999000 198.128000 1626.250000
293.827000 402.806000 642.962000
44.561600 -92.897200 1654.130000
707.529000 165.347000 1752.860000
72.610600 -247.812000 1212.570000
586.800000 270.317000 1135.810000
605.266000 -454.054000 1398.550000
-457.632000 -884.829000 3708.660000
-717.074000 311.837000 1027.980000
-885.005000 189.346000 1265.330000
609.374000 -320.404000 1642.540000
-369.603000 331.191000 887.311000
9.225660 156.542000 1866.030000
454.794000 161.895000 1936.570000
-928.853000 163.585000 1347.940000
-84.821100 366.102000 712.256000
99.338100 246.446000 1458.960000
631.606000 234.910000 1350.430000
514.625000 -323.292000 953.154000
39.044000 -263.587000 1616.370000
229.872000 354.178000 796.589000
338.539000 169.647000 1075.870000
-484.143000 -11.445300 1714.310000
248.821000 336.043000 890.342000
253.434000 190.590000 1076.440000
-122.669000 -159.749000 1641.830000
79.098200 -493.893000 1267.820000
-388.122000 -786.397000 3718.800000
242.786000 -204.933000 895.105000
279.765000 100.038000 1086.490000
597.098000 220.311000 1013.950000
87.255000 -451.446000 1033.660000
654.965000 157.763000 1891.160000
464.351000 -58.552100 909.409000
365.155000 62.428800 520.855000
866.578000 145.721000 1937.650000
372.756000 -227.026000 510.491000
-241.145000 -183.212000 1652.190000
60.451100 -517.906000 964.146000
791.132000 169.938000 1801.440000
-560.207000 225.230000 1663.930000
64.341000 -236.420000 1315.850000
93.631400 -181.518000 950.315000
-297.921000 -139.020000 1666.110000
-5.482580 52.782700 1661.730000
-701.312000 127.812000 1987.880000
-772.302000 273.560000 1311.790000
537.793000 259.486000 1005.900000
155.378000 173.864000 1421.190000
209.187000 215.437000 1318.780000
318.488000 -315.266000 815.064000
722.399000 55.712400 1765.860000
-248.795000 -245.303000 1614.650000
764.143000 183.324000 1468.850000
-309.049000 167.058000 1872.550000
282.924000 294.103000 1100.910000
-58.680500 389.625000 636.232000
-563.400000 -800.179000 3738.130000
-480.084000 264.866000 1413.540000
155.231000 195.353000 1672.910000
487.449000 328.008000 847.645000
-166.378000 352.053000 773.231000
-470.718000 -788.599000 3730.180000
-531.105000 -99.660900 1700.690000
47.829600 -544.062000 1180.120000
-140.474000 363.113000 725.757000
-660.912000 214.768000 1689.640000
-533.524000 130.696000 1946.890000
-57.949300 -252.036000 1599.160000
-67.716100 -389.341000 1625.980000
379.172000 200.961000 1577.030000
-410.243000 251.240000 1542.440000
317.401000 151.255000 2003.080000
207.628000 -115.003000 900.865000
128.287000 322.076000 999.374000
264.029000 -139.033000 728.467000
867.681000 106.025000 2094.660000
426.840000 261.413000 727.541000
260.744000 292.676000 849.271000
456.340000 -376.051000 1199.920000
-391.717000 338.807000 841.200000
-909.396000 162.032000 2079.930000
-928.783000 202.831000 1783.540000
9.370450 334.096000 898.461000
309.795000 170.901000 1858.600000
-560.508000 -887.409000 3720.690000
17.167400 -29.083000 1642.980000
417.133000 154.417000 698.583000
862.024000 -437.108000 1484.580000
-642.274000 245.370000 1533.770000
-226.578000 110.686000 1712.450000
201.236000 190.580000 1185.840000
247.205000 172.018000 1128.620000
-275.380000 201.264000 1725.600000
799.722000 -442.155000 1539.790000
154.002000 341.515000 879.550000
440.700000 310.026000 760.036000
-882.994000 137.113000 2229.000000
-68.263300 -163.569000 1634.540000
-391.564000 223.049000 1678.690000
768.558000 -529.725000 1508.120000
94.770300 4.243330 987.567000
233.328000 184.264000 1742.770000
-542.274000 341.479000 814.866000
887.495000 96.759700 2142.690000
-27.775300 230.854000 1631.420000
832.868000 -451.938000 2885.390000
436.746000 -429.496000 1081.240000
543.464000 -352.530000 2460.510000
29.689300 -416.478000 1594.080000
95.149400 -453.958000 916.297000
489.685000 189.966000 1559.710000
197.374000 -125.115000 959.521000
-783.656000 306.085000 1100.940000
672.828000 199.614000 1335.370000
332.424000 349.228000 790.963000
-377.965000 133.729000 1910.650000
-772.766000 236.816000 1557.580000
241.694000 160.007000 1226.260000
791.633000 -1.940590 1609.850000
273.382000 99.328500 2329.050000
-149.491000 76.835000 1689.780000
-293.116000 266.738000 1441.910000
178.797000 150.991000 1927.230000
-895.153000 234.602000 1301.770000
59.622600 -507.128000 1579.510000
-511.269000 172.867000 1884.390000
315.047000 158.290000 1954.410000
150.934000 -330.148000 875.720000
-210.519000 -102.201000 1659.490000
138.348000 -41.217800 969.226000
245.444000 280.131000 1181.400000
342.884000 237.473000 978.585000
155.274000 258.301000 1183.570000
-401.245000 174.989000 1849.970000
94.532100 -414.802000 1198.550000
-571.162000 259.533000 1448.780000
-327.961000 25.956600 1703.500000
448.511000 242.025000 1155.120000
280.867000 129.315000 2188.420000
122.194000 -290.540000 1065.280000
53.570600 249.132000 1524.290000
201.275000 47.223000 977.895000
-364.840000 317.414000 975.980000
678.756000 -435.562000 1372.040000
205.839000 -272.887000 825.509000
305.934000 279.187000 946.928000
270.088000 -323.700000 702.510000
65.960700 225.210000 1623.040000
135.056000 -111.501000 911.302000
324.691000 309.955000 1014.160000
-129.266000 -2.020380 1667.850000
51.291600 -232.169000 1582.910000
207.807000 -465.905000 836.260000
155.293000 102.017000 1723.640000
356.776000 -65.734800 569.421000
414.885000 -349.567000 1014.660000
-772.590000 294.803000 1165.640000
364.321000 -278.188000 523.666000
908.059000 107.014000 1657.700000
737.617000 168.949000 1791.220000
392.273000 380.509000 640.716000
-429.759000 -227.857000 1685.110000
476.612000 199.291000 1311.870000
639.571000 -471.065000 2173.770000
756.113000 174.355000 1363.640000
185.726000 169.278000 1838.810000
898.863000 -381.815000 1528.600000
-195.897000 318.119000 962.707000
84.589500 16.004900 1636.570000
429.850000 167.914000 1238.430000
151.650000 193.444000 1108.090000
-347.006000 304.575000 1053.570000
149.428000 -279.891000 839.684000
547.032000 195.528000 1643.150000
-243.498000 288.396000 1230.620000
396.082000 -32.877200 964.277000
847.891000 56.658600 1523.720000
-880.924000 207.082000 1738.080000
30.929000 -121.477000 1039.350000
-472.617000 307.547000 1040.950000
728.226000 132.627000 2154.430000
-296.674000 385.108000 632.649000
325.812000 -62.926900 519.186000
-561.409000 192.681000 1783.070000
780.982000 184.018000 1703.100000
224.134000 195.365000 1674.010000
683.657000 -784.229000 1469.080000
372.785000 -159.837000 571.623000
326.868000 44.666100 1046.970000
-394.352000 234.871000 1633.380000
-615.960000 -46.510600 1631.080000
466.286000 309.836000 1010.140000
459.752000 218.776000 1042.510000
-293.582000 -878.675000 3681.300000
503.467000 131.019000 2221.960000
547.847000 -397.017000 1363.040000
560.923000 250.776000 1091.640000
700.212000 -702.447000 1467.880000
595.704000 -432.153000 1341.530000
172.802000 214.187000 1405.040000
-927.525000 215.591000 1688.710000
211.933000 33.632000 1058.460000
-632.709000 -154.245000 1640.120000
-453.863000 134.502000 1923.430000
527.298000 -532.865000 1297.190000
70.403500 -473.551000 1127.580000
772.659000 -352.127000 1558.870000
-689.658000 230.460000 1605.340000
69.613200 244.272000 1064.420000
436.927000 -356.645000 1107.690000
314.113000 257.908000 1063.370000
-447.514000 339.295000 830.794000
310.126000 133.473000 1068.660000
177.524000 315.187000 1030.940000
-599.595000 287.860000 1211.580000
-531.807000 297.673000 1110.950000
236.512000 -336.719000 624.040000
409.053000 329.825000 535.551000
340.778000 20.886300 600.984000
267.692000 82.356300 2392.290000
-12.027500 341.119000 842.430000
60.460800 -537.883000 1241.150000
752.851000 214.103000 1329.190000
-471.794000 -729.163000 3737.470000
324.770000 -300.326000 510.412000
-54.806600 356.593000 760.682000
119.825000 235.833000 1290.920000
910.852000 19.877100 1588.490000
379.970000 -224.043000 604.681000
-301.534000 -685.734000 3776.410000
378.960000 248.608000 502.944000
-554.713000 -730.773000 3746.880000
-575.400000 -191.886000 1695.340000
-704.145000 181.080000 1866.020000
-186.319000 294.297000 1147.760000
640.917000 -796.333000 1488.970000
