ply
format ascii 1.0
comment Created by Open3D
element vertex 1928
property double x
property double y
property double z
end_header
-503.025 -208.878 3734.66
-503.024 -400.961 3814.08
-503.008 -198.653 3734.46
-503 506.229 907.733
-502.993 385.903 1014.6
-502.976 379.652 1046.17
-502.972 516.785 2187.45
-502.97 470.93 976.54
-502.96 518.671 2481.38
-502.938 510.738 831.962
-502.935 -55.5893 3733.27
-502.923 -45.3714 3733.15
-502.922 504.319 1701.71
-502.915 514.719 1875.58
-502.909 -359.157 3812.68
-502.882 385.682 1196.33
-502.877 -65.7985 3732.86
-502.865 397.161 983.665
-502.858 389.863 1001.95
-502.835 498.159 954.762
-502.83 489.828 979.953
-502.828 467.88 982.63
-502.826 505.984 885.365
-502.815 505.99 890.799
-502.793 504.102 1611.27
-502.774 -127.066 3732.3
-502.773 -35.1444 3732.02
-502.762 -147.489 3732.31
-502.755 267.87 3103.11
-502.753 -137.274 3732.2
-502.743 421.024 919.558
-502.734 394.935 1164.15
-502.721 -188.327 3732.25
-502.707 393.122 995.438
-502.703 -106.624 3731.69
-502.7 -167.895 3731.96
-502.696 406.768 965.181
-502.67 370.114 2907.77
-502.66 499.953 1388.21
-502.658 402.992 976.939
-502.657 508.134 847.43
-502.633 -157.662 3731.41
-502.626 411.562 909.806
-502.611 -96.3942 3730.97
-502.584 519.438 2658.11
-502.582 -86.179 3730.72
-502.572 519.676 2696.9
-502.572 389.016 1007.44
-502.568 402.466 1148.23
-502.555 382.094 1020.06
-502.54 414.038 909.352
-502.531 512.529 810.617
-502.53 -178.047 3730.76
-502.529 515.124 830.186
-502.515 -75.9594 3730.19
-502.506 505.578 858.112
-502.458 -116.779 3729.9
-502.427 384.565 1203.37
-502.426 503.762 1639.03
-502.411 407.046 958.904
-502.359 507.975 873.265
-502.338 390.032 1111.64
-502.336 398.476 1155.42
-502.333 467.229 987.744
-502.329 410.389 919.962
-502.311 406.612 1132.54
-502.286 98.0203 3098.97
-502.277 106.498 3098.94
-502.275 503.492 1515.57
-502.258 466.256 2817.93
-502.218 393.843 1170.71
-502.212 478.266 980.113
-502.211 407.386 952.845
-502.205 499.482 1397.79
-502.183 469.125 1012.04
-502.176 514.641 819.469
-502.158 505.294 878.769
-502.14 477.217 1355.8
-502.139 502.821 940.862
-502.125 395.95 1261.99
-502.083 497.39 959.268
-502.057 387.985 1012.5
-502.053 505.33 922.95
-502.048 503.458 1714.67
-502.043 503.364 1623.19
-502.027 466.753 993.275
-502.007 340.713 2998.23
-501.991 373.767 1090.65
-501.986 -24.892 3726.16
-501.974 507.736 899.842
-501.973 89.4844 3097
-501.955 505.214 917.08
-501.951 516.255 2263.46
-501.935 384.438 1018.61
-501.932 503.123 1489.56
-501.929 486.041 990.829
-501.92 516.979 2380.27
-501.904 504.313 2733.01
-501.899 395.824 987.66
-501.897 488.778 990.426
-501.887 405.601 969.38
-501.874 410.484 913.756
-501.874 507.456 867.078
-501.871 514.208 808.971
-501.864 499.885 946.605
-501.86 503.039 1477.16
-501.859 -410.439 3805.36
-501.854 80.9907 3096.23
-501.808 399.05 981.358
-501.763 469.627 980.213
-501.76 494.338 965.012
-501.754 507.249 851.084
-501.732 72.5003 3095.45
-501.73 385.555 1185.55
-501.722 405.541 1138.64
-501.684 377.322 2902.15
-501.657 395.053 993.131
-501.657 499.67 952.111
-501.64 502.88 1539.4
-501.611 507.248 877.322
-501.59 513.742 1929.61
-501.569 397.964 1116.68
-501.537 514.828 2106.28
-501.51 507.175 882.549
-501.505 514.952 2130.54
-501.501 507.197 887.979
-501.495 502.697 1500.64
-501.404 513.672 803.265
-501.404 515.009 2155.06
-501.385 468.195 1016.77
-501.366 507.091 893.219
-501.349 304.302 3043.49
-501.349 513.24 1888.97
-501.338 504.648 933.12
-501.337 389.228 1176.58
-501.324 512.733 1814.09
-501.285 391.408 998.592
-501.28 432.439 1344.28
-501.275 502.527 1551.45
-501.271 403.269 1122.98
-501.246 396.288 1168.31
-501.222 228.605 3146.34
-501.177 401.267 979.887
-501.116 471.755 978.614
-501.109 390.663 1004.28
-501.108 496.4 963.372
-501.058 350.705 2944.66
-501.037 515.496 2287.42
-501.032 414.9 911.624
-501.009 412.329 911.875
-501.005 490.837 969.939
-500.999 501.685 944.558
-500.993 410.943 928.049
-500.988 474.368 978.036
-500.987 513.257 1947.75
-500.985 508.872 844.062
-500.976 515.62 2315.94
-500.958 404.333 973.372
-500.956 504.283 938.212
-500.92 515.753 2345.22
-500.919 404.29 1144.3
-500.898 386.453 1016.3
-500.883 400.488 1151.93
-500.873 467.53 1022.13
-500.87 378.839 1061.11
-500.847 515.793 826.826
-500.846 511.057 833.016
-500.844 211.23 3143.8
-500.837 502.062 1523.96
-500.82 219.821 3143.73
-500.814 472.592 2809.93
-500.752 468.506 984.296
-500.744 504.032 926.241
-500.724 488.049 2767.37
-500.724 377.337 1101.51
-500.712 467.933 1002.76
-500.71 -440.647 3797.07
-500.703 389.732 1009.56
-500.701 379.325 1028.71
-500.691 501.823 1426.83
-500.651 379.971 1022.36
-500.621 410.171 932.836
-500.612 506.389 902.931
-500.594 498.602 956.01
-500.575 411.062 921.83
-500.567 -523.558 3797.26
-500.565 236.901 3142.28
-500.56 409.65 938.246
-500.554 524.222 2609.86
-500.551 517.55 805.669
-500.538 510.385 2725.67
-500.528 397.473 984.721
-500.524 -533.891 3797.1
-500.52 275.129 3089.36
-500.459 -430.049 3795.01
-500.455 -461.177 3795.43
-500.444 -544.184 3796.67
-500.439 -450.785 3795.15
-500.428 506.234 908.188
-500.375 508.454 869.291
-500.37 -471.474 3794.94
-500.344 382.56 1021.55
-500.34 479.099 982.184
-500.282 505.789 853.773
-500.274 501.438 1460.49
-500.251 -512.854 3794.69
-500.24 379.069 1053.2
-500.232 -554.326 3795.24
-500.211 378.264 1034.01
-500.205 -419.458 3792.93
-500.198 510.446 837.047
-500.198 202.368 3139.67
-500.184 -481.671 3793.69
-500.181 463.773 2849.82
-500.152 453.72 996.865
-500.142 505.676 858.776
-500.114 505.98 918.918
-500.104 384.043 2893.11
-500.102 510.399 842.036
-500.099 501.218 1413.86
-500.091 391.481 1173.53
-500.087 523.071 2535.4
-500.081 -564.528 3794.26
-500.079 501.231 1448.13
-500.059 -491.92 3792.9
-500.059 500.748 948.655
-500.04 498.041 960.92
-500.03 512.977 2052.91
-500.028 393.185 995.862
-500.028 -502.257 3792.82
-500.014 489.703 986.336
-500.014 403.049 977.365
-500.004 481.419 987.33
-499.979 -616.25 3794.41
-499.975 508.132 879.343
-499.974 507.885 847.521
-499.974 396.47 989.557
-499.93 -346.663 3789.92
-499.929 -585.089 3793.47
-499.928 -595.454 3793.65
-499.903 402.862 1149.53
-499.894 -574.683 3793.02
-499.883 379.496 1045.95
-499.861 388.457 1013.99
-499.861 377.362 1065.58
-499.86 511.123 1791.03
-499.822 193.632 3137.24
-499.802 512.314 1985.26
-499.791 374.368 1092.6
-499.783 395.795 1157.15
-499.781 407.089 1134.06
-499.757 512.131 1963.79
-499.748 387.271 1180.73
-499.728 467.372 988.38
-499.72 408.486 942.215
-499.712 385.017 1204.91
-499.698 -605.542 3792.08
-499.692 410.794 914.802
-499.688 512.777 2074.73
-499.66 420.596 918.971
-499.627 492.198 966.883
-499.624 407.927 947.637
-499.622 384.826 1019.88
-499.587 311.527 3032.86
-499.573 505.754 1738.76
-499.555 -657.162 3791.96
-499.533 -636.417 3791.4
-499.519 505.089 1572.86
-499.508 486.382 991.876
-499.503 502.839 941.306
-499.499 468.908 1025.47
-499.484 470.06 981.465
-499.48 -864.204 3795.55
-499.473 244.962 3135.49
-499.439 539.16 844.732
-499.395 511.974 830.038
-499.389 523.703 2679.89
-499.367 505.192 911.867
-499.365 406.171 1140.59
-499.338 -677.585 3790.71
-499.337 379.313 1098.3
-499.331 -698.284 3791.06
-499.33 507.351 862.143
-499.324 -625.796 3789.62
-499.259 -708.534 3790.71
-499.24 -687.804 3790.16
-499.225 -646.375 3789.25
-499.217 511.549 809.604
-499.204 466.704 993.497
-499.191 507.293 872.564
-499.17 516.415 2718.33
-499.167 516.448 823.468
-499.15 -718.731 3790.09
-499.149 472.482 980.48
-499.123 391.883 1000.07
-499.117 496.447 1367.75
-499.106 374.603 1084.2
-499.105 499.798 952.752
-499.101 -770.407 3790.76
-499.079 -666.885 3788.54
-499.071 488.888 972.208
-499.063 -853.135 3792.16
-499.058 510.532 1823.92
-499.056 -842.774 3791.89
-499.053 504.881 1642.7
-499.051 399.023 981.571
-499.025 -335.688 3782.92
-499.021 475.098 979.901
-499.001 -790.945 3790.41
-498.972 499.67 958.465
-498.967 507.193 888.437
-498.94 412.73 913.124
-498.929 -801.178 3790.08
-498.928 504.877 933.963
-498.916 447.631 982.746
-498.907 513.511 803.571
-498.906 390.404 1103.85
-498.902 398.269 1154.97
-498.894 500.033 1433.09
-498.885 375.175 1076.91
-498.88 510.469 1841.68
-498.88 504.796 928.08
-498.879 -728.685 3788.23
-498.877 -873.507 3791.18
-498.844 504.457 1584.5
-498.836 406.309 957.458
-498.828 391.055 1005.55
-498.822 -832.036 3789.9
-498.822 507.089 893.675
-498.808 -821.67 3789.58
-498.781 488.551 977.735
-498.777 411.254 929.094
-498.759 -811.246 3788.99
-498.75 -780.206 3788.29
-498.739 -924.972 3791.19
-498.738 499.833 1387.98
-498.737 513.548 818.257
-498.737 184.647 3130.34
-498.735 499.841 1398.9
-498.714 468.343 1017.41
-498.685 -883.51 3789.93
-498.684 405.689 962.897
-498.667 394.865 992.92
-498.665 493.957 964.637
-498.645 406.643 951.403
-498.641 511.406 2024.51
-498.634 375.715 1069.62
-498.593 411.554 923.285
-498.567 501.916 945.4
-498.565 390.745 2884.29
-498.56 388.543 1227.05
-498.552 506.858 898.723
-498.54 -738.528 3785.86
-498.537 380.514 1024.06
-498.505 478.055 2797.06
-498.492 504.371 921.609
-498.468 319.104 3026.15
-498.464 468.938 985.547
-498.454 -748.736 3785.41
-498.436 -934.747 3789.1
-498.417 385.509 1185.53
-498.409 414.842 911.851
-498.406 468.224 1010.39
-498.397 503.905 1555.77
-498.396 506.321 850.015
-498.392 508.916 865.318
-498.364 -758.935 3784.94
-498.352 -944.922 3788.67
-498.351 -1006.92 3789.91
-498.349 488.017 989.218
-498.348 467.655 1029.59
-498.331 -893.216 3787.44
-498.328 -955.21 3788.69
-498.313 175.933 3127.61
-498.311 482.452 989.809
-498.285 503.555 1490.91
-498.282 282.311 3075.6
-498.279 386.602 1016.93
-498.23 518.561 2246.7
-498.223 520.804 2491.51
-498.196 -903.304 3786.63
-498.186 519.305 2332.47
-498.178 521.399 2561.06
-498.152 -1016.85 3788.59
-498.151 454.427 998.742
-498.117 346.208 2975.03
-498.114 504.086 938.254
-498.103 510.712 2000.16
-498.1 393.13 1168.72
-498.084 508.391 843.768
-498.08 397.7 985.563
-498.075 -1027.02 3788.22
-498.034 504.136 1716.98
-498.017 -985.594 3786.95
-498.016 496.015 962.997
-498.008 490.564 969.762
-498.002 506.169 881.25
-497.992 514.924 1876.3
-497.97 467.982 1003.18
-497.958 410.123 933.056
-497.951 503.711 1624.33
-497.942 506.282 903.184
-497.933 503.802 1653.97
-497.927 421.742 2881.07
-497.924 503.102 1465.43
-497.89 389.717 1009.77
-497.887 -995.66 3786.16
-497.873 404.529 967.089
-497.871 461.903 1016.23
-497.868 -913.033 3784.34
-497.85 379.318 1028.92
-497.846 167.219 3124.62
-497.82 453.143 2880.95
-497.815 505.771 854.239
-497.812 408.032 1136.88
-497.81 498.893 1374.63
-497.79 404.304 1144.5
-497.773 493.049 968.939
-497.764 -964.452 3784.61
-497.758 503.41 1595.01
-497.715 382.709 1022.18
-497.708 384.222 1191.89
-497.681 400.643 978.63
-497.657 -314.129 3772.3
-497.628 -324.429 3772.19
-497.627 484.479 994.343
-497.587 326.801 3020.89
-497.566 421.002 920.217
-497.538 515.001 1934.32
-497.536 505.959 913.7
-497.533 505.911 908.044
-497.507 411.103 915.844
-497.493 512.412 826.301
-497.491 502.708 1476.24
-497.488 388.744 1175.25
-497.47 498.171 961.556
-497.457 476.223 982.584
-497.453 158.544 3122.09
-497.452 393.33 996.492
-497.42 -974.098 3782.19
-497.408 469.626 1027.35
-497.4 503.435 1698.71
-497.389 487.021 993.533
-497.384 500.764 955.001
-497.356 -303.626 3769.91
-497.349 510.454 873.709
-497.344 409.157 937.431
-497.33 502.415 1440.04
-497.326 467.707 989.423
-497.314 521.173 2630.27
-497.308 509.958 836.757
-497.303 470.59 982.918
-497.284 509.871 831.587
-497.269 502.716 1538.94
-497.244 252.408 3121.54
-497.235 502.362 1451.49
-497.233 397.564 2876.67
-497.215 507.767 868.587
-497.209 413.271 2876.78
-497.2 517.745 2269.93
-497.175 400.051 1150.82
-497.153 403.44 971.492
-497.145 378.103 1033.78
-497.101 519.325 2452.48
-497.095 396.363 989.554
-497.095 396.186 1158.45
-497.056 149.882 3119.54
-497.028 517.828 2297.72
-497.016 507.618 873.605
-496.999 387.655 1182.04
-496.995 384.975 1020.51
-496.987 489.439 986.15
-496.98 355.836 2920.73
-496.969 380.52 1092.92
-496.962 502.875 1665.95
-496.96 521.52 2706.38
-496.957 436.639 2875.68
-496.914 518.654 808.525
-496.896 514.152 1911.52
-496.881 502.851 1681.16
-496.868 509.57 841.167
-496.837 511.45 805.139
-496.832 388.282 1013.77
-496.822 375.131 1085.93
-496.775 411.745 930.547
-496.771 458.282 1007.9
-496.762 502.751 941.543
-496.762 472.818 981.521
-496.761 491.686 2745.52
-496.734 141.254 3117.45
-496.712 391.357 1173.3
-496.712 511.391 809.9
-496.69 489.226 973.248
-496.688 466.943 994.333
-496.671 531.14 835.905
-496.661 -292.903 3764.52
-496.66 501.655 1415.19
-496.646 412.948 913.959
-496.63 538.766 844.642
-496.628 378.53 1051.9
-496.623 501.921 1498.36
-496.621 502.313 1605.54
-496.62 381.214 1026.18
-496.611 513.887 824.273
-496.599 513.138 1833.25
-496.597 501.632 1426.37
-496.593 489.092 979.183
-496.562 383.213 1091.88
-496.543 468.967 1019.07
-496.538 392.029 1000.7
-496.535 507.407 900.156
-496.527 406.415 1141.44
-496.514 463.274 1019.57
-496.504 399.166 982.199
-496.498 407.997 941.396
-496.482 395.05 1164.78
-496.468 499.822 947.28
-496.456 506.885 856.633
-496.438 289.648 3064.28
-496.432 507.188 888.888
-496.428 376.985 1064.7
-496.422 375.555 1078.19
-496.417 402.334 975.898
-496.411 504.998 934.601
-496.385 507.197 894.322
-496.375 469.565 987.206
-496.357 501.745 1523.04
-496.319 516.322 2210.89
-496.301 509.246 861.154
-496.297 494.295 965.676
-496.291 517.89 2384.38
-496.28 513.889 1950.11
-496.259 501.6 1509.9
-496.254 468.848 1012.06
-496.246 468.37 1031.47
-496.24 377.542 1057.65
-496.226 415.152 912.89
-496.217 398.662 1156.27
-496.212 485.812 997.438
-496.211 132.584 3114.12
-496.149 515.432 2132.46
-496.142 513.189 1888.75
-496.135 506.829 882.875
-496.107 504.596 922.447
-496.096 395.009 993.547
-496.09 376.021 1070.68
-496.086 477.546 985.677
-496.064 511.013 828.991
-496.058 411.592 923.708
-496.058 504.593 928.121
-496.038 389.204 1229.26
-495.951 512.874 803.12
-495.936 483.193 2782.73
-495.935 506.301 850.478
-495.932 385.383 1195.64
-495.927 396.525 1103.88
-495.88 123.98 3111.99
-495.865 391.043 1096.93
-495.857 333.897 3010.46
-495.841 506.153 845.104
-495.827 488.257 990.052
-495.827 427.805 2869
-495.824 402.116 1147.54
-495.818 506.449 876.872
-495.816 390.874 1005.33
-495.808 500.754 1401.56
-495.76 386.83 1017.77
-495.736 442.35 970.734
-495.733 491.004 971.003
-495.722 479.859 990.826
-495.717 384.482 1203.34
-495.71 504.147 915.987
-495.698 516.988 2350.76
-495.682 506.74 1758.72
-495.637 -282.022 3756.64
-495.595 383.254 1023.87
-495.571 515.301 2181.07
-495.546 496.25 963.831
-495.537 411.595 917.292
-495.529 510.535 833.202
-495.521 260.042 3110.78
-495.512 410.254 933.682
-495.506 497.925 2738.69
-495.487 464.795 1030.15
-495.484 512.472 807.314
-495.46 508.449 865.001
-495.452 496.519 1357.53
-495.445 439.69 964.527
-495.435 403.962 2866.36
-495.427 454.478 999.16
-495.401 501.407 944.829
-495.358 508.213 854.218
-495.321 471.315 984.78
-495.315 397.675 985.767
-495.314 443.028 2866.27
-495.306 379.546 1029.76
-495.291 500.191 1389.08
-495.272 506.174 903.431
-495.271 378.178 1042.5
-495.263 408.51 1138.38
-495.232 482.074 995.774
-495.216 405.044 961.646
-495.195 405.987 950.159
-495.195 500.055 1377.96
-495.191 473.938 984.203
-495.168 511.83 1846.59
-495.141 421.13 920.844
-495.069 467.1 1035.59
-495.068 506.023 908.684
-495.053 -382.002 3832.76
-495.046 511.366 1809.21
-495.035 115.268 3106.63
-495.024 467.839 1003.19
-494.998 514.468 2152.72
-494.994 516.825 2409.66
-494.973 389.62 1009.76
-494.965 509.385 792.265
-494.959 487.361 994.571
-494.916 393.151 1168.92
-494.884 406.204 943.909
-494.881 492.874 968.959
-494.852 507.565 842.889
-494.848 404.471 1145.14
-494.829 385.248 1184.85
-494.824 404.235 966.669
-494.823 400.529 978.625
-494.818 467.945 990.255
-494.818 490.072 975.303
-494.769 362.203 2907.81
-494.764 512.513 1965.21
-494.74 396.674 990.601
-494.721 -371.271 3830.06
-494.704 504.476 1557.58
-494.697 513.697 2101.57
-494.678 467.663 996.198
-494.672 409.11 937.643
-494.659 389.057 1176.33
-494.654 500.685 949.321
-494.645 509.699 836.841
-494.592 400.521 1152.33
-494.59 392.713 1251.7
-494.585 396.726 1160.18
-494.57 385.283 1021.56
-494.569 413.349 915.199
-494.556 528.71 827.125
-494.55 412.057 931.584
-494.528 386.13 1208.65
-494.504 510.015 868.172
-494.501 489.734 980.831
-494.493 513.695 800.16
-494.486 497.886 961.376
-494.486 514.062 820.158
-494.464 510.601 1789.17
-494.445 -271.091 3747.48
-494.436 497.816 955.259
-494.435 503.036 936.685
-494.433 377.006 1073.7
-494.411 469.492 1027.35
-494.382 106.626 3102.48
-494.368 489.577 986.776
-494.367 505.287 1737.14
-494.353 393.061 996.059
-494.314 483.897 999.9
-494.31 509.429 841.439
-494.299 -391.888 3827.05
-494.28 507.042 847.105
-494.279 436.287 956.675
-494.279 470.192 988.861
-494.274 98.1141 3101.77
-494.246 473.369 1334.25
-494.238 379.125 1079.96
-494.213 509.558 856.993
-494.2 404.694 953.92
-494.188 503.38 1466.32
-494.186 431.544 945.532
-494.165 469.4 1020.32
-494.149 415.555 914.129
-494.113 507.405 889.727
-494.097 403.149 971.069
-494.08 381.442 1027.02
-494.08 377.941 1033.55
-494.076 486.45 999.091
-494.054 392.256 1001.53
-494.051 376.011 1079.69
-494.045 512.167 2005.83
-494.038 509.455 861.997
-494.029 523.992 2539.77
-493.965 406.89 1142.95
-493.958 411.993 924.949
-493.955 504.354 1655.81
-493.934 512.468 2050.8
-493.915 475.355 987.502
-493.907 388.186 1013.76
-493.889 504.877 912.156
-493.878 465.815 1039.7
-493.876 387.75 1182.46
-493.864 491.852 973.054
-493.858 513.315 814.063
-493.848 503.69 1568.51
-493.824 504.929 923.48
-493.819 407.952 941.604
-493.748 405.256 1120.12
-493.742 506.886 878.102
-493.732 507.083 894.568
-493.696 503.362 1540.97
-493.688 502.794 1452.82
-493.685 499.739 953.411
-493.657 504.819 928.953
-493.652 89.5132 3097.82
-493.62 402.892 1149.93
-493.617 494.323 966.099
-493.612 506.821 883.322
-493.61 504.406 1717.9
-493.606 488.797 991.496
-493.594 503.456 2728.22
-493.593 369.274 2900.99
-493.584 395.291 1165.64
-493.535 472.237 987.05
-493.52 462.774 1032.58
-493.502 433.261 949.657
-493.493 510.745 824.111
-493.491 468.899 1012.47
-493.464 511.363 1981.51
-493.457 428.618 938.735
-493.442 504.479 917.019
-493.426 483.455 1341.91
-493.399 524.927 820.608
-493.343 411.904 918.325
-493.341 468.333 1031.67
-493.286 498.089 1361.96
-493.28 410.565 934.717
-493.271 465.046 2810.46
-493.261 80.9716 3095.33
-493.249 401.96 975.261
-493.246 398.828 1156.9
-493.227 503.42 1623.41
-493.221 398.714 981.348
-493.216 -260.19 3738.05
-493.202 55.5528 3094.89
-493.199 506.262 871.718
-493.187 -239.721 3737.65
-493.18 72.489 3094.8
-493.174 64.0188 3094.73
-493.171 459.966 1019.07
-493.158 504.369 933.833
-493.152 456.692 2853.97
-493.149 228.855 3149.62
-493.123 515.19 1877.24
-493.099 376.683 1064.03
-493.082 501.706 939.966
-493.066 464.886 1044.66
-493.063 502.39 1487.5
-493.057 391.013 1172.39
-493.04 407.217 1125.76
-493.014 506.416 898.823
-493.002 394.737 993.112
-492.96 -249.833 3736.01
-492.955 -229.387 3735.8
-492.921 511.633 2070.02
-492.907 390.775 1005.32
-492.897 402.048 1111.02
-492.892 503.569 1699.17
-492.869 220.113 3147.75
-492.848 467.72 1037.25
-492.848 -55.6045 3734.1
-492.836 510.677 859.381
-492.835 490.817 977.15
-492.828 459.457 1024.84
-492.827 488.001 996.22
-492.822 421.35 921.672
-492.816 468.666 992.115
-492.809 493.52 970.6
-492.807 498.884 957.705
-492.778 267.065 3093.6
-492.777 211.462 3147.09
-492.767 508.302 870.463
-492.758 -65.8121 3733.45
-492.757 510.686 864.581
-492.753 383.244 1024.07
-492.72 202.828 3146.65
-492.719 -219.06 3733.93
-492.702 514.573 816.614
-492.681 -167.963 3733.29
-492.681 -157.747 3733.23
-492.674 339.934 2991.19
-492.674 -208.824 3733.51
-492.661 468.384 998.061
-492.657 -198.601 3733.31
-492.657 501.596 1426.35
-492.644 -147.52 3732.9
-492.636 -137.302 3732.78
-492.623 -35.1494 3732.36
-492.622 386.576 1017.33
-492.61 502.17 1524.39
-492.574 -45.3598 3732.01
-492.559 -127.067 3732.15
-492.554 379.617 1030.17
-492.543 511.762 801.907
-492.539 409.511 938.884
-492.539 376.399 2894.89
-492.506 -188.328 3732.09
-492.502 512.095 821.895
-492.496 505.955 903.474
-492.483 468.079 1004.01
-492.466 509.74 2722.09
-492.45 501.686 1473.29
-492.449 -178.095 3731.59
-492.446 501.108 944.652
-492.444 397.564 985.755
-492.444 502.345 1577.86
-492.433 502.515 1606.21
-492.426 408.753 1139.23
-492.42 502.985 1681.62
-492.42 476.576 990.388
-492.42 377.528 1049.29
-492.416 406.337 944.528
-492.413 -359.111 3812.02
-492.411 514.163 811.092
-492.402 490.376 982.476
-492.399 501.19 1402.88
-492.398 -400.807 3812.44
-492.391 -106.603 3730.79
-492.384 509.348 807.169
-492.376 393.685 1170.65
-492.374 425.417 931.328
-492.305 -75.9599 3730.04
-492.288 487.186 2762.33
-492.272 510.534 2020.98
-492.268 413.567 916.025
-492.268 507.476 848.331
-492.251 495.656 963.036
-492.24 -86.1568 3729.57
-492.195 237.012 3143.59
-492.189 471.687 2804.4
-492.187 514.142 820.817
-492.183 -116.764 3729.25
-492.171 -96.3502 3729.08
-492.167 520.799 2428.15
-492.155 385.701 1186.37
-492.074 470.721 990.306
-492.071 484.434 1001.34
-492.067 502.524 1664.78
-492.056 389.522 1009.74
-492.023 408.946 1130.74
-491.997 412.096 931.997
-491.995 404.714 1145.99
-491.978 500.978 1435.98
-491.966 400.414 978.613
-491.962 412.485 926.392
-491.958 505.694 925.305
-491.895 500.748 1412.7
-491.884 -24.8971 3726.74
-491.854 349.888 2937.63
-491.849 489.815 987.601
-491.845 511.128 805.717
-491.824 389.368 1177.41
-491.815 400.838 1153.4
-491.74 501.202 1508.75
-491.735 193.83 3140.27
-491.644 505.152 907.535
-491.627 501.602 1589.28
-491.604 396.892 1160.81
-491.599 501.853 1632.81
-491.596 384.557 1193.17
-491.551 382.32 1080.64
-491.53 486.69 999.916
-491.522 523.123 2676.8
-491.522 415.496 914.339
-491.495 502.731 936.511
-491.482 377.477 1040.76
-491.476 492.19 974.083
-491.473 422.406 924.342
-491.464 392.956 996.042
-491.462 392.955 1252.57
-491.448 466.247 1040.95
-491.444 520.834 2491.55
-491.444 500.148 1389.05
-491.442 517.873 2243.63
-491.434 472.865 988.699
-491.425 376.089 1053.74
-491.418 508.767 830.799
-491.412 507.147 884.351
-491.407 455.705 1009.26
-491.396 407.365 1144.45
-491.361 507.178 889.774
-491.352 492.071 980.018
-491.34 396.146 989.529
-491.333 381.511 1027.43
-491.31 504.881 912.589
-491.284 469.357 1020.52
-491.268 513.724 1909.88
-491.255 521.478 2561.33
-491.253 412.305 919.56
-491.248 407.996 942.014
-491.243 494.661 967.127
-491.242 500.613 1494.49
-491.225 469.048 1033.55
-491.221 384.871 1020.69
-491.218 377.935 1033.74
-491.217 499.848 1377.48
-491.217 469.168 1026.92
-491.217 404.888 947.865
-491.207 507.185 900.639
-491.193 -410.227 3803.23
-491.177 489.137 992.526
-491.133 506.698 872.942
-491.115 477.995 993.686
-491.07 506.165 841.038
-491.055 513.263 1888.98
-491.045 410.876 935.748
-490.981 508.401 835.194
-490.955 521.6 2596.64
-490.947 391.989 1001.09
-490.94 504.722 929.181
-490.933 387.989 1183.31
-490.917 465.596 1046.54
-490.913 516.355 2160.57
-490.907 469.486 994.18
-490.887 496.975 959.972
-490.865 336.119 3030.39
-490.853 460.096 1033.54
-490.783 521.87 2633.68
-490.738 514.761 807.746
-490.722 403.073 964.148
-490.706 184.85 3133.62
-490.698 508.643 866.287
-490.695 403.524 958.296
-490.675 517.747 2297.26
-490.657 499.335 947.123
-490.651 506.527 894.021
-490.646 403.953 952.452
-490.64 504.489 934.458
-490.621 383.789 1025.76
-490.62 499.173 1365.05
-490.595 515.21 2711.84
-490.588 488.54 997.66
-490.583 508.252 850.132
-490.56 465.108 1052.56
-490.497 395.383 1166.05
-490.476 402.906 1150.12
-490.47 506.094 877.175
-490.465 506.504 904.896
-490.462 274.233 3079.11
-490.449 501.722 940.389
-490.432 468.912 999.505
-490.422 468.153 1038.5
-490.413 402.339 969.379
-490.408 499.13 952.62
-490.406 176.168 3131.63
-490.398 504.302 1543.9
-490.382 507.609 823.928
-490.368 387.605 1012.46
-490.366 376.836 1064.65
-490.356 514.476 812.128
-490.355 510.657 859.829
-490.352 244.693 3131.87
-490.326 503.943 916.453
-490.326 410.128 1134.2
-490.321 391.399 1173.68
-490.321 485.467 1003.82
-490.318 510.515 854.444
-490.313 461.96 1052.27
-490.297 503.502 1466.74
-490.291 515.396 2132.24
-490.272 398.994 1157.53
-490.254 477.465 2793.47
-490.253 459.354 1038.9
-490.248 386.072 1198.02
-490.194 490.917 983.912
-490.187 409.732 939.706
-490.182 413.968 917.258
-490.178 167.521 3130.12
-490.167 471.543 992.367
-490.159 406.647 945.558
-490.154 -544.287 3797.23
-490.148 -523.522 3796.84
-490.098 494.831 1342.66
-490.084 512.978 1946.59
-490.08 461.906 1044.99
-490.068 -440.419 3794.93
-490.064 -14.6431 3712.92
-490.063 521.532 820.099
-490.048 498.524 1352.85
-490.026 468.28 1011.42
-490.017 493.447 970.811
-490.011 -533.752 3795.94
-490.001 504.017 1556.19
-489.986 521.968 2708.59
-489.985 496.096 964.264
-489.976 -461.087 3794.52
-489.971 513.841 801.486
-489.939 468.319 1004.84
-489.934 -512.919 3795
-489.924 -471.412 3794.28
-489.911 394.463 992.669
-489.907 502.993 1453.47
-489.906 -502.516 3794.61
-489.901 379.765 1030.79
-489.901 -481.763 3794.25
-489.899 504.037 1569.63
-489.897 510.934 1790.32
-489.886 -429.882 3793.37
-489.869 158.856 3128.08
-489.865 -450.61 3793.51
-489.847 514.06 816.323
-489.843 509.426 822.479
-489.832 473.983 991.378
-489.823 382.195 2878.99
-489.794 479.414 996.984
-489.785 505.61 1754.76
-489.781 487.727 1002.39
-489.771 512.402 1924.47
-489.769 401.327 973.985
-489.731 -419.376 3792.02
-489.731 517.105 2322.45
-489.725 -554.18 3794.08
-489.721 510.1 864.056
-489.693 493.141 976.333
-489.661 509.431 832.403
-489.659 412.317 932.818
-489.639 511.322 1844.71
-489.632 458.592 1044.27
-489.628 398.007 979.856
-489.628 490.356 989.037
-489.62 -491.855 3792.23
-489.601 405.34 1147.93
-489.591 516.024 810.287
-489.581 456.239 1024.53
-489.577 507.76 880.548
-489.552 528.68 833.048
-489.547 509.411 837.373
-489.527 412.613 927.006
-489.495 382.291 1029.76
-489.492 408.919 1139.85
-489.484 412.98 921.409
-489.476 515.155 2180.37
-489.473 386.153 1187.89
-489.47 397.368 985.524
-489.462 515.46 2207.1
-489.451 -564.234 3792.12
-489.44 504.946 1719.74
-489.419 506.871 837.67
-489.403 506.941 842.836
-489.383 390.182 1004.02
-489.308 470.074 1029.21
-489.299 -574.42 3791.13
-489.287 500.596 944.065
-489.283 386.159 1016.45
-489.281 518.138 2446.75
-489.277 515.927 2261.84
-489.27 -584.746 3791.09
-489.249 345.693 2970.44
-489.24 -346.438 3787.28
-489.21 463.677 1056.47
-489.209 150.094 3123.8
-489.209 466.865 1042.61
-489.206 377.936 1042.23
-489.196 513.947 2102.53
-489.189 355.981 2921.77
-489.174 -594.99 3790.53
-489.106 -605.264 3790.19
-489.076 502.033 1439.09
-489.074 389.752 1178.7
-489.071 507.049 868.762
-489.052 466.584 1049.05
-489.047 492.511 981.246
-489.003 -615.492 3789.58
-489.003 415.528 914.748
-489.002 393.557 1170.4
-488.977 508.622 826.102
-488.971 389.387 2874.08
-488.969 505.045 907.765
-488.945 460.528 2829.68
-488.944 489.677 993.962
-488.935 -656.818 3789.82
-488.924 396.348 1094.97
-488.924 377.063 1048.18
-488.921 516.983 2380.1
-488.911 502.191 1474.84
-488.91 513.074 2053.17
-488.861 510.286 1822.98
-488.854 520.399 823.172
-488.816 -677.36 3789.3
-488.797 400.042 977.963
-488.796 -863.637 3792.93
-488.787 470.111 995.827
-488.77 491.197 2742.65
-488.768 482.531 1329.06
-488.763 -884.277 3793.11
-488.759 378.239 1034.79
-488.755 400.928 1153.81
-488.749 502.98 1579.9
-488.744 505.163 930.402
-488.736 503.096 1594.07
-488.733 -791.084 3790.94
-488.724 505.054 924.532
-488.698 411.097 936.567
-488.684 -697.872 3788.68
-488.677 -770.297 3790.08
-488.67 396.204 989.93
-488.666 509.864 1803.85
-488.658 481.033 1000.7
-488.645 -625.388 3786.99
-488.642 489.38 999.715
-488.622 141.377 3119.99
-488.62 475.494 994.883
-488.6 -718.445 3788.44
-488.598 -635.674 3786.82
-488.57 -801.164 3789.88
-488.56 486.5 1006.29
-488.558 502.424 936.328
-488.551 -780.443 3789.31
-488.544 -852.846 3790.76
-488.536 511.611 1961.69
-488.533 506.965 895.24
-488.531 -666.62 3786.89
-488.52 503.556 1668.22
-488.518 -707.98 3787.59
-488.512 469.198 1034.16
-488.492 502.221 1524.59
-488.469 -687.222 3786.8
-488.461 407.861 942.003
-488.457 494.585 967.335
-488.457 506.693 884.001
-488.448 524.904 826.515
-488.447 -894.048 3790.86
-488.438 388.587 1185.27
-488.434 517.289 812.828
-488.434 -811.284 3789.04
-488.424 -873.322 3790.25
-488.416 414.645 919.103
-488.413 511.74 1982.92
-488.387 504.012 1732.72
-488.381 -842.221 3789.27
-488.359 -645.704 3785.15
-488.344 396.834 1160.78
-488.341 494.503 973.26
-488.319 375.934 1053.49
-488.318 497.103 960.588
-488.299 502.912 1621.78
-488.297 514.789 813.158
-488.295 -821.392 3788.17
-488.29 465.724 1054.22
-488.287 -924.774 3790.26
-488.277 -831.702 3788.25
-488.262 -748.965 3786.43
-488.251 472.365 994.426
-488.24 -728.254 3785.85
-488.236 -759.264 3786.44
-488.217 499.565 947.942
-488.202 483.343 1005.86
-488.182 491.661 985.754
-488.17 502.645 1606.65
-488.142 500.865 1413.12
-488.137 503.02 1651.41
-488.121 488.863 1005.06
-488.12 454.684 1027.99
-488.102 404.493 947.227
-488.092 510.865 860.659
-488.062 -945.018 3788.94
-488.059 392.436 994.958
-488.049 503.361 1698.46
-488.031 132.678 3116.16
-488.027 500.85 1424.3
-488.021 -934.605 3788.41
-488.017 383.618 1200.83
-488.002 -738.233 3784.2
-487.993 504.122 911.623
-487.986 500.502 1390.14
-487.983 496.712 953.869
-487.979 384.538 1020.02
-487.95 504.165 917.275
-487.945 -955.124 3788.25
-487.911 388.446 1007.16
-487.898 510.095 834.003
-487.892 407.067 1143.76
-487.88 508.287 866.142
-487.847 510.493 854.887
-487.839 511.403 2002.77
-487.839 507.832 844.823
-487.822 514.032 802.329
-487.812 -335.097 3776.08
-487.797 469.054 1000.12
-487.795 468.397 1039.32
-487.789 501.265 1496.5
-487.786 -903.168 3785.94
-487.774 395.771 1167.33
-487.744 124.078 3114.28
-487.742 502.475 1634.86
-487.72 -1006.32 3787.54
-487.713 -913.36 3785.58
-487.712 501.631 940.604
-487.71 -1016.63 3787.66
-487.684 452.051 1007.9
-487.662 399.461 1159.03
-487.648 505.95 888.042
-487.623 485.557 1010.81
-487.602 504.072 934.075
-487.595 482.467 2778.4
-487.555 499.961 1377.9
-487.546 468.044 1045.54
-487.542 -1026.6 3786.56
-487.521 413.106 928.442
-487.467 516.406 816.267
-487.457 -974.811 3784.86
-487.45 -995.442 3785.23
-487.433 376.836 1064.84
-487.431 -324.514 3773.01
-487.426 507.303 838.886
-487.418 403.474 951.601
-487.416 515.021 2341.69
-487.395 493.581 977.557
-487.393 -964.364 3784.16
-487.369 383.459 1025.08
-487.354 499.954 1399.49
-487.328 391.309 999.578
-487.302 490.796 990.264
-487.3 -314.108 3771.88
-487.295 384.959 1215.86
-487.288 502.43 1679.75
-487.266 500.613 1482.27
-487.246 379.913 1031.4
-487.229 -303.745 3771.22
-487.225 500.801 1507.58
-487.214 391.491 1174.09
-487.208 -984.631 3783.14
-487.186 398.232 980.676
-487.184 115.423 3110.65
-487.176 467.574 1051.55
-487.161 251.613 3111.51
-487.144 509.643 848.353
-487.141 387.264 1011.79
-487.132 416.115 916.385
-487.12 458.785 1052.16
-487.118 511.476 2069.31
-487.114 468.076 1018
-487.094 470.697 1030.86
-487.087 387.085 1077.22
-487.084 409.325 939.07
-487.056 505.53 898.104
-487.054 402.689 1149.64
-487.034 402.7 956.605
-487.006 505.001 870.449
-487.006 509.053 827.317
-486.998 407.846 1118.97
-486.996 412.265 933.013
-486.991 468.174 1004.82
-486.984 514.411 1893.19
-486.952 413.015 921.812
-486.931 496.813 2732.43
-486.925 394.271 992.43
-486.884 513.429 815.833
-486.86 470.931 997.886
-486.86 390.571 1181.32
-486.843 507.525 880.588
-486.837 508.659 816.842
-486.821 507.72 891.619
-486.805 490.317 995.6
-486.803 -293.172 3767.81
-486.796 495.603 963.657
-486.791 476.418 997.145
-486.783 386.605 1189.41
-486.777 509.034 837.245
-486.767 362.168 2907.37
-486.766 467.85 1010.78
-486.754 508.153 796.731
-486.75 409.743 1133.29
-486.738 401.994 961.824
-486.628 98.2852 3107.02
-486.623 405.893 944.086
-486.619 106.786 3106.99
-486.595 498.88 1364.34
-486.588 490.12 1001.56
-486.539 508.455 821.409
-486.536 492.747 982.061
-486.519 497.891 950.605
-486.492 498.585 1342.86
-486.48 470.008 1036.23
-486.473 509.286 863.133
-486.46 507.141 1760.09
-486.455 386.144 1016.63
-486.419 504.967 902.548
-486.369 511.642 862.455
-486.36 506.808 868.806
-486.349 381.216 1068.97
-486.338 500.295 943.873
-486.325 473.187 996.482
-486.279 495.128 968.76
-486.201 509.955 2018.62
-486.194 486.939 1007.52
-486.187 396.918 984.653
-486.139 502.65 937.144
-486.136 381.885 1028.87
-486.133 512.938 1850.54
-486.131 498.308 1352.37
-486.109 401.009 966.419
-486.105 376.467 1055.18
-486.103 414.863 919.916
-486.089 397.596 1163.16
-486.085 394.9 2857.19
-486.067 513.152 1869.74
-486.029 511.156 856.488
-486.009 401.936 1102.29
-485.994 378.309 1035.18
-485.971 503.035 1453.66
-485.969 401.244 1154.86
-485.964 510.103 814.821
-485.956 452.475 1029.97
-485.932 506.684 884.429
-485.916 385.243 1195.54
-485.913 504.845 924.549
-485.911 506.446 873.421
-485.908 503.218 2726.8
-485.905 408.538 1138.94
-485.901 89.6481 3102.33
-485.817 504.849 930.217
-485.815 410.866 936.344
-485.782 407.814 942.193
-485.781 522.218 827.121
-485.781 502.698 1441.08
-485.77 463.187 1055.6
-485.767 504.389 906.995
-485.763 389.507 1002.5
-485.758 469.775 1001.97
-485.735 399.754 977.515
-485.72 393.5 1170.36
-485.707 414.148 924.686
-485.706 468.781 1310.94
-485.663 388.969 1186.56
-485.631 376.75 1047.5
-485.589 517.358 2189.65
-485.545 519.408 822.108
-485.538 404.583 1145.91
-485.53 496.942 954.682
-485.483 395.842 989.266
-485.463 400.006 971.017
-485.44 81.0808 3099.35
-485.426 377.232 1040.47
-485.414 520.671 2427.45
-485.409 400.228 1161.41
-485.404 518.389 2272.59
-485.385 468.756 1047.4
-485.376 514.333 817.805
-485.359 468.829 1040.55
-485.354 511.946 818.313
-485.351 477.735 1000.23
-485.322 -282.003 3756.21
-485.305 503.239 1527.74
-485.252 47.134 3098.05
-485.242 368.957 2898.35
-485.236 524.234 2682.38
-485.174 521.411 2494.21
-485.161 488.705 1005.05
-485.16 491.39 985.54
-485.143 465.507 1053.98
-485.139 494.017 972.643
-485.138 506.075 894.085
-485.138 496.605 959.979
-485.111 383.924 1201.91
-485.097 350.814 2945.27
-485.07 491.336 991.692
-485.068 422.013 1300.46
-485.051 398.711 982.123
-485.031 496.562 965.892
-485.013 72.5349 3096.59
-485.001 388.346 1007.12
-484.996 503.689 911.245
-484.939 468.893 1006.67
-484.925 501.674 1426.73
-484.924 471.751 999.942
-484.921 509.367 828.337
-484.865 392.08 994.289
-484.841 384.284 1019.55
-484.835 447.059 989.665
-484.823 505.857 899.118
-484.817 220.369 3151.26
-484.814 401.657 2849.81
-484.813 519.083 2360.13
-484.805 468.098 1053
-484.802 211.741 3151.09
-484.789 474.401 999.366
-484.787 501.262 1403.26
-484.779 503.511 1595.41
-484.779 403.92 946.163
-484.77 501.326 940.41
-484.754 509.453 2720.43
-484.742 509.55 843.62
-484.731 468.507 1019.23
-484.698 64.0186 3094.55
-484.694 512.288 1904.48
-484.69 500.773 1369.65
-484.681 390.501 1078.51
-484.669 492.987 1327.58
-484.648 392.021 1175.81
-484.633 203.048 3149.92
-484.621 258.769 3095.33
-484.612 510.783 1807.09
-484.599 500.936 1391.44
-484.589 395.788 1167.51
-484.589 493.509 977.754
-484.58 471.034 1031.89
-484.569 510.472 1788.68
-484.56 490.857 997.028
-484.55 508.737 817.482
-484.546 412.778 928.012
-484.517 409.366 939.466
-484.501 416.055 916.578
-484.488 -371.461 3831.85
-484.459 403.159 1151.13
-484.442 498.422 946.129
-484.438 -381.903 3831.59
-484.43 512.91 801.093
-484.427 486.873 2760.42
-484.411 228.8 3148.7
-484.401 348.049 2990.59
-484.387 379.903 1031.57
-484.34 55.5084 3092.24
-484.317 501.465 1460.84
-484.316 503.084 915.697
-484.308 507.137 864.626
-484.298 406.689 1142.84
-484.296 507.243 870.016
-484.283 501.722 1485.63
-484.277 481.704 1316.66
-484.273 391.099 1183.05
-484.257 503.332 933.082
-484.255 502.631 1565.26
-484.237 521.456 2561.11
-484.218 -271.108 3747.55
-484.216 506.467 837.98
-484.206 402.961 1105.29
-484.203 482.141 1010.15
-484.18 402.394 1158.34
-484.169 502.378 1551.14
-484.14 509.043 847.825
-484.128 516.199 2210.2
-484.12 412.031 932.788
-484.118 194.223 3146.5
-484.11 463.63 2801.74
-484.094 479.249 1003.74
-484.087 502.133 1537.27
-484.084 387.056 1190.92
-484.078 458.663 1052.13
-484.064 502.599 1578.72
-484.025 379.003 1037.29
-484.017 407.928 1119.36
-483.98 377.077 1057.09
-483.97 498.015 951.213
-483.919 409.985 1134.12
-483.895 415.173 920.931
-483.88 511.477 857.502
-483.865 484.612 1009.14
-483.86 511.315 852.126
-483.855 515.925 2715.5
-483.846 512.001 1942.82
-483.833 507.12 885.638
-483.807 467.707 1010.76
-483.771 509.039 863.175
-483.758 470.157 1036.83
-483.737 501.01 1471.41
-483.736 393.912 991.76
-483.732 -391.811 3826.13
-483.729 405.67 943.855
-483.715 386.76 1010.68
-483.71 470.496 1003.82
-483.692 470.012 1043.47
-483.656 499.831 1377.63
-483.655 501.373 1509.36
-483.649 504.745 902.569
-483.618 382.731 1023.33
-483.607 517.339 2323.42
-483.596 501.16 1496.24
-483.593 512.049 1963.32
-483.57 411.176 937.36
-483.558 502.415 1605.93
-483.546 470.737 2798.6
-483.526 452.692 1037.82
-483.525 386.048 1016.59
-483.524 511.352 1920.46
-483.52 492.473 981.844
-483.513 390.461 997.63
-483.484 515.921 2235.05
-483.451 511.165 862.108
-483.392 509.768 1821.1
-483.39 494.947 968.753
-483.371 417.29 919.649
-483.368 507.858 830.803
-483.367 397.985 1164.44
-483.347 502.73 1650.46
-483.289 385.763 1197.28
-483.288 384.423 1214.25
-483.274 414.275 925.287
-483.251 394.107 1172.3
-483.24 475.615 1002.25
-483.239 499.794 1410.16
-483.236 513.355 2076.88
-483.206 504.743 924.759
-483.183 375.283 2886.13
-483.135 503.471 1730.84
-483.125 408.021 2839.98
-483.119 517.733 2383.46
-483.103 483.855 1014.07
-483.091 518.669 2449.16
-483.084 499.675 943.068
-483.078 472.668 1002.2
-483.046 494.662 974.267
-483.043 404.621 1155.48
-483.035 513.502 2100.63
-483.034 402.028 948.443
-483.02 507.615 835.378
-483.012 396.551 983.984
-482.995 185.183 3139.1
-482.979 505.982 873.063
-482.972 497.067 955.287
-482.954 390.972 1257.58
-482.937 491.931 986.963
-482.934 376.899 1048.1
-482.931 469.51 1021.71
-482.926 469.188 1048.64
-482.905 521.135 2629.84
-482.872 497.045 961.192
-482.861 498.513 1332.66
-482.855 -260.121 3736.88
-482.837 498.61 1343.04
-482.823 502.559 1680.18
-482.813 176.527 3137.86
-482.797 506.156 889.28
-482.791 501.914 936.143
-482.786 407.498 941.752
-482.782 -55.6229 3735.16
-482.78 503.951 906.615
-482.738 -45.3958 3734.8
-482.679 -147.598 3734.7
-482.665 167.889 3136.83
-482.647 377.303 1040.86
-482.622 469.286 1014.48
-482.619 -157.799 3734.29
-482.605 513.413 2123.93
-482.599 -65.8208 3733.76
-482.584 404.746 1146.53
-482.559 501.551 1617.38
-482.542 446.297 2837.15
-482.534 491.573 992.498
-482.523 409.272 1123.24
-482.508 400.467 1162.25
-482.501 509.199 823.634
-482.498 386.375 1066.85
-482.491 -167.974 3733.36
-482.489 505.958 894.305
-482.489 502.022 1663.12
-482.483 469.227 1007.69
-482.481 381.241 1027.32
-482.479 -137.32 3733.1
-482.476 -249.7 3733.85
-482.47 519.021 2515.49
-482.461 -401.219 3816.19
-482.448 488.756 999.064
-482.446 -359.458 3815.54
-482.421 503.691 911.657
-482.421 483.178 1019.22
-482.408 -229.235 3733.15
-482.402 505.498 877.48
-482.355 502.262 1694.73
-482.353 388.993 1001.4
-482.348 -239.42 3732.77
-482.334 502.436 1711.15
-482.322 408.156 1138.02
-482.309 498.966 947.541
-482.308 491.397 998.452
-482.301 236.38 3135.02
-482.293 498.172 1352.1
-482.275 -35.1401 3731.19
-482.274 503.888 928.821
-482.264 -178.107 3731.66
-482.248 159.168 3134.06
-482.24 -218.944 3731.77
-482.24 506.431 818.61
-482.216 396.472 1169.67
-482.199 403.963 946.552
-482.181 501.336 1631.15
-482.164 388.772 1186.07
-482.159 512.255 859.289
-482.148 -198.483 3730.9
-482.116 -127.008 3730.23
-482.112 515.301 2286.28
-482.108 513.262 2147.5
-482.1 -208.672 3730.6
-482.06 471.371 1032.9
-482.06 396.197 1086.26
-482.045 503.414 916.705
-482.037 507.345 865.441
-482.034 501.233 940.612
-482 -188.216 3729.68
-481.984 -106.561 3729.12
-481.982 392.478 1177.31
-481.952 398.867 975.583
-481.94 -116.756 3728.82
-481.912 400.652 951.973
-481.892 476.748 2789.12
-481.874 477.025 1005.54
-481.87 519.454 2585.81
-481.868 -75.9246 3728.12
-481.849 414.686 2832.57
-481.83 356.45 2925.49
-481.827 380.128 1032.39
-481.824 509.588 864.574
-481.806 465.104 1053.31
-481.788 395.058 987.534
-481.787 412.632 927.99
-481.772 -86.1111 3727.41
-481.768 -96.3118 3727.41
-481.746 387.894 1236.42
-481.682 437.762 2831.96
-481.674 391.724 993.613
-481.669 412.159 933.385
-481.637 150.401 3130.02
-481.631 409.137 939.231
-481.618 508.4 827.245
-481.617 510.491 816.475
-481.603 429.952 2831.37
-481.572 398.085 980.819
-481.543 380.363 1058.18
-481.54 510.858 2022.15
-481.507 399.417 962.816
-481.49 383.664 1201.19
-481.48 417.878 921.276
-481.47 491.397 2743.65
-481.465 510.116 1976.54
-481.457 471.023 1005.24
-481.428 504.97 897.948
-481.424 498.239 957.918
-481.42 470.683 1038.27
-481.418 498.138 951.814
-481.415 377.974 1051.3
-481.413 470.799 1024.82
-481.403 383.788 1018.44
-481.403 524.83 823.087
-481.399 393.214 1077.84
-481.397 506.871 1759.13
-481.391 -24.8822 3724.33
-481.382 493.026 977.125
-481.378 398.854 968.457
-481.286 402.634 1159.17
-481.28 479.219 1010.51
-481.255 415.113 921.116
-481.252 379.072 1037.68
-481.205 492.911 983.058
-481.205 503.514 1541.55
-481.204 470.717 1011.2
-481.2 506.998 885.858
-481.16 500.432 944.882
-481.156 506.549 869.265
-481.153 405.712 944.242
-481.144 470.35 1044.48
-481.139 391.19 1183.44
-481.138 495.34 963.845
-481.127 501.288 1392.51
-481.123 473.489 1004.25
-481.12 395.123 1271.18
-481.092 399.524 956.132
-481.089 484.692 1022.73
-481.085 406.14 1150.65
-481.076 406.62 1142.79
-480.956 506.605 879.861
-480.933 387.148 1191.31
-480.899 514.604 819.266
-480.875 387.265 1004.52
-480.874 508.021 841.544
-480.859 509.831 820.273
-480.844 408.075 943.388
-480.815 502.483 931.878
-480.798 461.222 1051.33
-480.793 411.034 937.332
-480.763 500.748 1380.26
-480.755 378.071 1043.19
-480.752 -410.198 3802.79
-480.735 421.452 2826.13
-480.732 500.558 1369.15
-480.714 510.415 846.028
-480.708 492.471 988.381
-480.702 466.946 1050.64
-480.697 386.58 1010.42
-480.658 511.982 819.391
-480.644 141.543 3123.5
-480.636 510.483 851.199
-480.607 503.708 1596.06
-480.603 501.238 1425.56
-480.601 501.408 1437.43
-480.584 506.079 873.677
-480.58 506.481 890.286
-480.576 382.557 1023.07
-480.544 510.145 2041.34
-480.521 481.547 1306.27
-480.504 390.079 1069
-480.501 494.766 968.739
-480.487 502.186 1499.37
-480.483 506.937 815.066
-480.461 504.083 901.789
-480.458 398.223 1165.27
-480.439 469.908 1016.12
-480.419 390.19 997.162
-480.39 502.466 1525.42
-480.387 380.957 2869.5
-480.373 483.903 1001.49
-480.36 522.386 2435.38
-480.323 394.344 1173.13
-480.322 513.173 1907.74
-480.279 472.616 1008.96
-480.174 509.074 1993.55
-480.142 393.217 990.233
-480.135 401.808 948.2
-480.106 510.229 860.976
-480.083 511.216 813.308
-480.076 519.255 2694.35
-480.041 507.004 834.847
-480.007 518.267 2219
-480.002 501.869 1510.91
-479.993 385.467 1015.26
-479.969 499.455 1345.43
-479.95 500.901 1447.52
-479.945 475.088 1007.97
-479.944 499.279 1334.83
-479.929 381.466 1028.13
-479.908 500.18 1400.29
-479.888 451.554 2821.63
-479.885 502.535 1564.99
-479.88 503.991 923.761
-479.835 483.406 1013.42
-479.827 471.993 1034.55
-479.819 124.234 3118.03
-479.798 132.761 3117.94
-479.775 499.208 954.237
-479.766 385.571 1196.78
-479.743 -440.472 3795.22
-479.723 483.27 1006.62
-479.695 496.545 960.569
-479.678 501.156 1483.99
-479.668 413.392 923.608
-479.645 511.748 1864.57
-479.642 -513.013 3795.54
-479.625 506.43 828.933
-479.596 -429.962 3793.91
-479.591 502.433 1578.22
-479.585 513.119 1947.03
-479.582 418.466 922.901
-479.57 -419.563 3793.55
-479.562 503.525 917.308
-479.561 498.877 947.735
-479.533 395.929 982.673
-479.513 403.918 946.727
-479.512 400.63 1162.85
-479.508 512.666 1925.37
-479.48 -523.212 3794.42
-479.473 444.239 997.086
-479.469 504.096 1700.94
-479.464 -346.864 3791.78
-479.444 511.88 1883.79
-479.428 404.249 1154.55
-479.42 -450.547 3792.81
-479.419 471.726 1013.67
-479.416 -14.6285 3709.01
-479.407 -533.504 3794.02
-479.402 491.202 992.061
-479.378 409.446 940.239
-479.362 380.431 1033.42
-479.348 501.07 934.931
-479.347 485.652 999.023
-479.334 408.734 1130.79
-479.327 491.15 1312.74
-479.325 503.146 911.065
-479.321 471.586 1020.06
-479.312 498.474 1322.69
-479.304 -502.283 3792.69
-479.286 352.466 2959.03
-479.276 496.619 2731.23
-479.274 502.965 905.231
-479.273 501.692 1549.04
-479.267 379.766 1039.78
-479.249 -460.754 3791.61
-479.245 362.495 2909.86
-479.232 481.695 2773.81
-479.228 506.985 865.274
-479.221 502.468 1606.12
-479.211 -491.818 3791.79
-479.207 -481.447 3791.59
-479.176 -543.613 3792.36
-479.171 384.253 1019.89
-479.154 115.54 3113.66
-479.147 493.454 972.204
-479.146 379.074 1046.16
-479.098 508.108 822.348
-479.088 506.983 870.464
-479.084 498.687 1353.61
-479.075 471.209 1039.7
-479.074 -470.95 3790.38
-479.042 476.981 1012.31
-479.028 412.484 927.96
-479.025 510.747 1842.57
-479.018 500.285 1469.33
-479.006 471.231 1026.04
-479.004 491.303 1037.65
-478.986 474.113 1012.47
-478.978 243.27 3113.44
-478.967 485.423 1024.57
-478.966 493.52 990.826
-478.933 396.412 1169.62
-478.91 -553.672 3790.44
-478.901 412.015 933.354
-478.894 504.842 892.737
-478.872 508.014 827.102
-478.864 507.04 881.059
-478.85 502.517 1635.02
-478.84 384.181 1202.92
-478.827 -563.935 3789.95
-478.826 506.851 875.464
-478.82 511.147 852.785
-478.811 503.647 1715.28
-478.805 -584.625 3790.14
-478.771 -574.226 3789.69
-478.763 407.324 1144.93
-478.755 388.646 1185.79
-478.743 407.772 1137.09
-478.728 499.116 1408.31
-478.694 512.412 820.589
-478.681 405.843 944.832
-478.68 -594.827 3789.34
-478.661 495.571 964.643
-478.645 388.231 999.643
-478.588 391.449 993.141
-478.586 499.654 1455.59
-478.586 516.254 2184.88
-478.578 492.951 977.308
-478.567 403.025 1160.43
-478.561 106.886 3109.76
-478.543 -615.363 3788.64
-478.516 515.257 2131.51
-478.496 -770.575 3791.32
-478.462 506.764 885.874
-478.459 -604.904 3787.78
-478.451 -677.347 3789.09
-478.45 381.4 1044.48
-478.447 387.232 2857.99
-478.43 502.601 926.812
-478.419 98.3465 3108.79
-478.414 392.201 1176.59
-478.413 -656.595 3788.39
-478.406 397.713 980.141
-478.403 380.777 1051.08
-478.403 -780.774 3790.79
-478.403 414.869 920.881
-478.394 501.818 1618.26
-478.39 510.855 857.379
-478.384 398.148 974.063
-478.372 408.205 943.978
-478.362 -635.827 3787.58
-478.362 518.003 2298.22
-478.355 504.413 897.363
-478.354 497.84 957.496
-478.352 -697.904 3788.7
-478.326 -687.519 3788.3
-478.289 502.616 1680.37
-478.275 -863.339 3791.5
-478.271 438.518 970.307
-478.268 503.02 2725.6
-478.265 457.711 2812.19
-478.258 516.871 2239.1
-478.254 -625.337 3786.53
-478.245 -790.863 3789.75
-478.234 509.556 820.325
-478.234 -666.694 3787.16
-478.231 382.941 1024.31
-478.217 478.974 1016.86
-478.207 473.314 1017.39
-478.202 394.356 986.004
-478.189 -708.012 3787.62
-478.184 487.527 1029.33
-478.182 511.995 1963.06
-478.181 391.426 1184.27
-478.178 499.967 938.587
-478.178 -718.339 3787.73
-478.171 399.736 950.05
-478.162 467.372 1044.8
-478.15 -852.769 3790.29
-478.123 410.982 937.506
-478.115 -800.991 3788.93
-478.113 509.442 1819.9
-478.091 492.533 982.622
-478.057 524.4 2683.11
-478.051 508.201 862.652
-478.046 89.7682 3106.33
-478.004 -645.692 3784.94
-478.001 -873.186 3789.54
-477.973 -335.445 3779.84
-477.969 475.902 1016.61
-477.938 -748.996 3786.46
-477.93 -842.037 3788.32
-477.891 502.926 1728.94
-477.89 -810.952 3787.36
-477.882 -759.247 3786.22
-477.88 508.551 1781.89
-477.865 507.091 830.513
-477.862 498.88 1041.17
-477.855 -728.192 3785.38
-477.813 398.685 1166.76
-477.798 -831.468 3787.06
-477.79 502.062 931.47
-477.754 -821.056 3786.49
-477.725 -883.015 3787.56
-477.721 507.087 835.465
-477.719 398.043 966.729
-477.714 -924.335 3788.34
-477.714 -738.312 3784.47
-477.704 495.078 994.299
-477.67 381.928 1029.59
-477.669 386.917 1003.83
-477.656 401.939 948.788
-477.655 472.713 1029.56
-477.642 512.501 855.532
-477.627 501.458 1646.27
-477.624 497.192 962.179
-477.622 405.575 1104.32
-477.61 383.036 1049.18
-477.603 501.662 1661.92
-477.571 405.84 1149.93
-477.559 495.135 1007.05
-477.559 516.617 2264.7
-477.555 398.788 954.622
-477.545 -934.338 3787.21
